ncols 186
nrows 79
xllcorner 610464
yllcorner 6871264
cellsize 16
nodata_value -9999
-9999 -9999 -9999 -9999 -9999 -9999 -9999 -9999 -9999 -9999 -9999 -9999 -9999 -9999 -9999 -9999 -9999 -9999 -9999 -9999 -9999 -9999 -9999 -9999 -9999 -9999 -9999 -9999 -9999 -9999 -9999 -9999 -9999 -9999 -9999 -9999 -9999 -9999 -9999 82.345 82.378 82.36 82.378 82.354 82.331 82.606 82.423 82.233 82.877 83.188 83.846 83.543 82.451 82.353 82.723 83.115 83.273 82.712 82.048 81.828 81.777 81.96 81.86 82.163 81.799 81.783 81.757 81.824 81.793 81.722 81.89 81.829 82.362 82.29 82.659 82.202 82.611 81.543 -9999 -9999 -9999 -9999 -9999 -9999 -9999 -9999 -9999 -9999 -9999 -9999 -9999 -9999 -9999 -9999 -9999 -9999 -9999 -9999 -9999 -9999 -9999 -9999 -9999 -9999 -9999 -9999 -9999 -9999 -9999 -9999 -9999 -9999 -9999 -9999 -9999 -9999 -9999 -9999 -9999 -9999 -9999 -9999 -9999 -9999 -9999 -9999 -9999 -9999 -9999 -9999 -9999 -9999 -9999 -9999 -9999 -9999 -9999 -9999 -9999 -9999 -9999 -9999 -9999 -9999 -9999 -9999 -9999 -9999 -9999 -9999 -9999 81.518 81.751 81.717 81.623 82.124 82.288 82.621 82.789 82.856 83.317 83.631 83.624 -9999 -9999 -9999 -9999 -9999 -9999 -9999 -9999 -9999 -9999 -9999 -9999 -9999 -9999 -9999 -9999 -9999 -9999 -9999 -9999 -9999 -9999 -9999
-9999 -9999 -9999 -9999 -9999 -9999 -9999 -9999 -9999 -9999 -9999 -9999 -9999 -9999 -9999 -9999 -9999 -9999 -9999 -9999 -9999 -9999 -9999 -9999 -9999 -9999 -9999 -9999 -9999 -9999 -9999 -9999 -9999 -9999 -9999 -9999 -9999 -9999 82.501 82.475 82.469 82.439 82.475 82.232 82.163 82.32 82.489 82.393 82.426 82.454 82.663 83.2 82.337 82.533 82.676 83.516 84.054 82.819 82.682 82.909 82.587 82.476 81.861 81.961 81.93 81.831 81.817 81.671 81.722 81.872 82.257 83.325 83.828 82.708 83.182 82.323 82.715 82.559 81.545 -9999 -9999 -9999 -9999 -9999 -9999 -9999 -9999 -9999 -9999 -9999 -9999 -9999 -9999 -9999 -9999 -9999 -9999 -9999 -9999 -9999 -9999 -9999 -9999 -9999 -9999 -9999 -9999 -9999 -9999 -9999 -9999 -9999 -9999 -9999 -9999 -9999 -9999 -9999 -9999 -9999 -9999 -9999 -9999 -9999 -9999 -9999 -9999 -9999 -9999 -9999 -9999 -9999 -9999 -9999 -9999 -9999 -9999 -9999 -9999 -9999 -9999 -9999 -9999 -9999 -9999 -9999 -9999 -9999 -9999 -9999 -9999 81.38 81.625 81.598 81.548 81.627 81.796 81.97 82.161 82.246 82.519 83.057 83.451 83.532 -9999 -9999 -9999 -9999 -9999 -9999 -9999 -9999 -9999 -9999 -9999 -9999 -9999 -9999 -9999 -9999 -9999 -9999 -9999 -9999 -9999 -9999
-9999 -9999 -9999 -9999 -9999 -9999 -9999 -9999 -9999 -9999 -9999 -9999 -9999 -9999 -9999 -9999 -9999 -9999 -9999 -9999 -9999 -9999 -9999 -9999 -9999 -9999 -9999 -9999 -9999 -9999 -9999 -9999 -9999 -9999 -9999 -9999 -9999 -9999 82.26 82.505 82.475 82.428 82.354 82.317 82.339 82.357 82.33 82.327 82.459 82.204 82.375 82.541 82.58 82.38 82.469 82.429 82.613 82.804 82.977 83.56 82.886 82.407 82.543 82.117 81.846 81.893 81.569 81.842 81.806 81.886 83.053 85.532 85.779 84.732 82.875 82.321 81.876 81.737 81.444 81.387 82.037 81.387 -9999 -9999 -9999 -9999 -9999 -9999 -9999 -9999 -9999 -9999 -9999 -9999 -9999 -9999 -9999 -9999 -9999 -9999 -9999 -9999 -9999 -9999 -9999 -9999 -9999 -9999 -9999 -9999 -9999 -9999 -9999 -9999 -9999 -9999 -9999 -9999 -9999 -9999 -9999 -9999 -9999 -9999 -9999 -9999 -9999 -9999 -9999 -9999 -9999 -9999 -9999 -9999 -9999 -9999 -9999 -9999 -9999 -9999 -9999 -9999 -9999 -9999 -9999 -9999 -9999 -9999 -9999 -9999 -9999 -9999 81.666 81.515 81.559 81.464 81.658 81.862 81.776 81.99 82.265 82.752 83.277 83.37 83.631 84.069 84.31 -9999 -9999 -9999 -9999 -9999 -9999 -9999 -9999 -9999 -9999 -9999 -9999 -9999 -9999 -9999 -9999 -9999 -9999 -9999
-9999 -9999 -9999 -9999 -9999 -9999 -9999 -9999 -9999 -9999 -9999 -9999 -9999 -9999 -9999 -9999 -9999 -9999 -9999 -9999 -9999 -9999 -9999 -9999 -9999 -9999 -9999 -9999 -9999 -9999 -9999 -9999 -9999 -9999 -9999 -9999 -9999 -9999 82.634 82.46 82.473 82.538 82.475 82.432 82.474 82.396 82.348 82.35 82.453 82.236 82.273 82.213 82.358 82.162 82.26 82.424 82.443 82.511 82.946 82.917 83.987 83.083 83.231 82.106 81.928 82.022 81.922 82.01 81.971 82.041 83.615 85.548 83.925 82.996 82.301 82.143 82.198 83.493 83.896 83.437 82.12 82.046 81.528 81.384 81.425 81.402 81.492 -9999 -9999 -9999 -9999 -9999 -9999 -9999 -9999 -9999 -9999 -9999 -9999 -9999 -9999 -9999 -9999 -9999 -9999 -9999 -9999 -9999 -9999 -9999 -9999 -9999 -9999 -9999 -9999 -9999 -9999 -9999 -9999 -9999 -9999 -9999 -9999 -9999 -9999 -9999 -9999 -9999 -9999 -9999 -9999 -9999 -9999 -9999 -9999 -9999 -9999 -9999 -9999 -9999 -9999 -9999 -9999 -9999 -9999 -9999 -9999 -9999 -9999 -9999 -9999 -9999 81.55 81.629 81.564 81.564 81.533 81.592 81.61 81.687 82.015 82.416 83.038 83.679 83.862 84.169 84.308 84.276 84.365 84.64 -9999 -9999 -9999 -9999 -9999 -9999 -9999 -9999 -9999 -9999 -9999 -9999 -9999 -9999 -9999 -9999
-9999 -9999 -9999 -9999 -9999 -9999 -9999 -9999 -9999 -9999 -9999 -9999 -9999 -9999 -9999 -9999 -9999 -9999 -9999 -9999 -9999 -9999 -9999 -9999 -9999 -9999 -9999 -9999 -9999 -9999 -9999 -9999 -9999 -9999 -9999 -9999 -9999 -9999 82.132 84.263 86.293 87.824 87.348 83.555 82.586 82.561 82.511 82.457 82.427 82.32 82.313 82.239 82.199 82.328 82.217 82.182 82.271 82.434 82.691 83.303 82.558 82.47 82.53 82.172 82.264 81.991 81.897 82.011 81.971 82.841 85.299 86.258 83.68 83.532 82.838 82.67 84.207 85.362 86.429 84.788 83.452 82.162 81.79 81.428 81.541 81.416 81.397 81.387 -9999 -9999 -9999 -9999 -9999 -9999 -9999 -9999 -9999 -9999 -9999 -9999 -9999 -9999 -9999 -9999 -9999 -9999 -9999 -9999 -9999 -9999 -9999 -9999 -9999 -9999 -9999 -9999 -9999 -9999 -9999 -9999 -9999 -9999 -9999 -9999 -9999 -9999 -9999 -9999 -9999 -9999 -9999 -9999 -9999 -9999 -9999 -9999 -9999 -9999 -9999 -9999 -9999 -9999 -9999 -9999 -9999 -9999 -9999 -9999 -9999 -9999 -9999 -9999 -9999 81.596 81.424 81.546 81.46 81.424 81.497 81.511 81.55 81.758 82.208 82.851 83.355 83.753 84.145 84.162 84.396 84.973 85.534 -9999 -9999 -9999 -9999 -9999 -9999 -9999 -9999 -9999 -9999 -9999 -9999 -9999 -9999 -9999
-9999 -9999 -9999 -9999 -9999 -9999 -9999 -9999 -9999 -9999 -9999 -9999 -9999 -9999 -9999 -9999 -9999 -9999 -9999 -9999 -9999 -9999 -9999 -9999 -9999 -9999 -9999 -9999 -9999 -9999 -9999 -9999 -9999 -9999 -9999 -9999 -9999 -9999 82.582 83.769 85.323 85.019 85.716 84.07 83.24 82.994 82.563 82.524 82.467 82.433 82.4 82.303 82.752 82.457 82.188 82.071 82.043 82.382 82.354 82.726 82.726 82.296 82.487 82.07 82.634 83.06 83.843 83.956 84.901 85.463 85.567 84.09 82.328 82.558 83.077 83.108 83.726 84.134 83.861 83.947 83.666 82.755 82.507 81.646 81.59 81.697 81.602 81.639 81.332 -9999 -9999 -9999 -9999 -9999 -9999 -9999 -9999 -9999 -9999 -9999 -9999 -9999 -9999 -9999 -9999 -9999 -9999 -9999 -9999 -9999 -9999 -9999 -9999 -9999 -9999 -9999 -9999 -9999 -9999 -9999 -9999 -9999 -9999 -9999 -9999 -9999 -9999 -9999 -9999 -9999 -9999 -9999 -9999 -9999 -9999 -9999 -9999 -9999 -9999 -9999 -9999 -9999 -9999 -9999 -9999 -9999 -9999 -9999 -9999 -9999 -9999 -9999 -9999 -9999 81.51 81.435 81.425 81.372 81.431 81.43 81.452 81.663 81.707 82.087 82.827 83.219 83.831 84.147 84.453 84.644 85.532 85.433 -9999 -9999 85.096 85.579 -9999 -9999 -9999 -9999 -9999 -9999 -9999 -9999 -9999 -9999
-9999 -9999 -9999 -9999 -9999 -9999 -9999 -9999 -9999 -9999 -9999 -9999 -9999 -9999 -9999 -9999 -9999 -9999 -9999 -9999 -9999 -9999 -9999 -9999 -9999 -9999 -9999 -9999 -9999 -9999 -9999 -9999 -9999 -9999 -9999 -9999 -9999 -9999 82.626 82.442 82.503 82.936 82.762 83.237 84.975 85.015 86.403 86.473 82.547 82.544 82.413 82.358 82.354 82.39 82.234 82.268 82.266 82.545 82.106 82.188 82.129 82.303 82.19 82.116 82.487 83.731 86.94 89.279 88.593 88.046 83.622 82.146 82.255 82.205 82.748 82.487 82.774 82.447 82.6 82.843 82.92 82.974 82.645 82.576 82.206 82.653 82.589 81.491 81.543 81.303 81.356 -9999 -9999 -9999 -9999 -9999 -9999 -9999 -9999 -9999 -9999 -9999 -9999 -9999 -9999 -9999 -9999 -9999 -9999 -9999 -9999 -9999 -9999 -9999 -9999 -9999 -9999 -9999 -9999 -9999 -9999 -9999 -9999 -9999 -9999 -9999 -9999 -9999 -9999 -9999 -9999 -9999 -9999 -9999 -9999 -9999 -9999 -9999 -9999 -9999 -9999 -9999 -9999 -9999 -9999 -9999 -9999 -9999 -9999 -9999 -9999 -9999 -9999 -9999 -9999 81.421 81.465 81.462 81.446 81.517 81.477 81.576 81.695 81.568 82.121 82.778 83.058 83.271 83.64 83.933 84.063 84.333 84.659 85.133 86.544 85.801 -9999 -9999 -9999 -9999 -9999 -9999 -9999 -9999 -9999 -9999
-9999 -9999 -9999 -9999 -9999 -9999 -9999 -9999 -9999 -9999 -9999 -9999 -9999 -9999 -9999 -9999 -9999 -9999 -9999 -9999 -9999 -9999 -9999 -9999 -9999 -9999 -9999 -9999 -9999 -9999 -9999 -9999 -9999 -9999 -9999 -9999 -9999 -9999 82.993 82.509 82.336 82.469 82.826 85.812 86.115 85.101 84.801 83.992 83.293 82.561 82.406 82.54 83.669 82.376 82.297 82.203 82.205 82.193 82.202 82.201 82.349 82.129 81.972 82.003 82.095 82.305 84.667 84.135 84.37 82.841 82.228 81.959 81.911 82.079 82.146 81.998 82.044 82.008 81.985 82.019 81.994 81.917 81.948 81.858 82.143 82.924 81.667 81.676 81.574 81.62 81.402 81.369 81.4 82.643 -9999 -9999 -9999 -9999 -9999 -9999 -9999 -9999 -9999 -9999 -9999 -9999 -9999 -9999 -9999 -9999 -9999 -9999 -9999 -9999 -9999 -9999 -9999 -9999 -9999 -9999 -9999 -9999 -9999 -9999 -9999 -9999 -9999 -9999 -9999 -9999 -9999 -9999 -9999 -9999 -9999 -9999 -9999 -9999 -9999 -9999 -9999 -9999 -9999 -9999 -9999 -9999 -9999 -9999 -9999 -9999 -9999 -9999 -9999 -9999 -9999 81.561 81.437 81.446 81.465 81.558 81.567 81.456 81.552 81.523 81.617 82.082 82.575 82.96 83.068 83.548 83.905 84.073 84.36 85.443 85.32 85.992 -9999 -9999 -9999 -9999 -9999 -9999 -9999 -9999 -9999 -9999
-9999 -9999 -9999 -9999 -9999 -9999 -9999 -9999 -9999 -9999 -9999 -9999 -9999 -9999 -9999 -9999 -9999 -9999 -9999 -9999 -9999 -9999 -9999 -9999 -9999 -9999 -9999 -9999 -9999 -9999 -9999 -9999 -9999 -9999 -9999 -9999 -9999 -9999 82.845 82.758 82.489 82.397 83.108 87.07 84.911 85.079 84.332 83.222 83.3 82.981 82.39 82.364 82.615 82.296 82.214 82.2 82.17 82.165 82.055 82.166 82.132 82.048 82.044 82.059 82.081 82.107 81.911 82.233 82.03 81.925 81.947 82.067 82.309 82.413 82.049 81.945 82.13 82.056 82.036 82.05 81.815 81.967 82.038 81.816 81.782 81.904 81.866 81.774 81.77 81.701 81.75 81.599 81.603 82.145 81.382 81.405 -9999 -9999 81.387 -9999 -9999 -9999 -9999 -9999 -9999 -9999 -9999 -9999 -9999 -9999 -9999 -9999 -9999 -9999 -9999 -9999 -9999 -9999 -9999 -9999 -9999 -9999 -9999 -9999 -9999 -9999 -9999 -9999 -9999 -9999 -9999 -9999 -9999 -9999 -9999 -9999 -9999 -9999 -9999 -9999 -9999 -9999 -9999 -9999 -9999 -9999 -9999 -9999 -9999 -9999 -9999 -9999 -9999 -9999 -9999 -9999 81.515 81.578 81.46 81.588 81.568 81.544 81.521 81.538 81.479 81.641 81.932 82.221 82.71 82.906 83.338 83.671 83.985 84.562 85.172 -9999 -9999 -9999 -9999 -9999 -9999 -9999 -9999 -9999 -9999 -9999
-9999 -9999 -9999 -9999 -9999 -9999 -9999 -9999 -9999 -9999 -9999 -9999 -9999 -9999 -9999 -9999 -9999 -9999 -9999 -9999 -9999 -9999 -9999 -9999 -9999 -9999 -9999 -9999 -9999 -9999 -9999 -9999 -9999 -9999 -9999 -9999 -9999 83.435 83.307 82.791 82.524 82.386 82.399 82.355 82.654 82.436 82.437 82.323 82.246 82.492 82.133 82.47 82.244 82.436 83.114 82.238 82.123 82.181 82.072 82.06 82.085 82.125 81.961 82.02 82.019 82.012 82.056 82.113 81.865 82.037 81.966 81.987 82.284 82.596 81.838 81.969 82.096 82.02 81.961 82.017 82.04 81.935 82.061 81.91 81.904 81.947 81.708 81.761 81.775 81.906 81.654 81.661 81.682 81.754 81.439 81.397 81.334 81.438 82.548 -9999 -9999 -9999 -9999 -9999 -9999 -9999 -9999 -9999 -9999 -9999 -9999 -9999 -9999 -9999 -9999 -9999 -9999 -9999 -9999 -9999 -9999 -9999 -9999 -9999 -9999 -9999 -9999 -9999 -9999 -9999 -9999 -9999 -9999 -9999 -9999 -9999 -9999 -9999 -9999 -9999 -9999 -9999 -9999 -9999 -9999 -9999 -9999 -9999 -9999 -9999 -9999 -9999 -9999 -9999 -9999 -9999 -9999 81.513 81.465 81.532 81.75 81.479 81.559 81.498 81.512 81.55 81.52 81.746 82.103 82.256 82.681 83.062 83.531 83.993 -9999 -9999 -9999 -9999 -9999 -9999 -9999 -9999 -9999 -9999 -9999 -9999
-9999 -9999 -9999 -9999 -9999 -9999 -9999 -9999 -9999 -9999 -9999 -9999 -9999 -9999 -9999 -9999 -9999 -9999 -9999 -9999 -9999 -9999 -9999 -9999 -9999 -9999 -9999 -9999 -9999 -9999 -9999 -9999 -9999 -9999 -9999 -9999 83.525 83.432 83.199 82.797 82.533 82.496 82.358 82.346 82.444 82.363 82.372 82.402 82.307 82.401 82.249 82.285 82.323 82.038 82.524 82.156 82.15 82.149 82.137 81.988 82.124 82.058 82.121 82.101 82.125 82.076 82.306 82.234 82.035 81.998 82.348 81.938 82.069 81.92 81.89 81.97 82.115 81.988 82.036 81.945 82.019 81.819 82.143 81.86 81.976 81.867 81.914 81.747 81.736 81.651 81.733 81.747 81.729 81.675 81.773 81.669 81.627 81.753 81.588 -9999 -9999 -9999 -9999 -9999 -9999 -9999 -9999 -9999 -9999 -9999 -9999 -9999 -9999 -9999 -9999 -9999 -9999 -9999 -9999 -9999 -9999 -9999 -9999 -9999 -9999 -9999 -9999 -9999 -9999 -9999 -9999 -9999 -9999 -9999 -9999 -9999 -9999 -9999 -9999 -9999 -9999 -9999 -9999 -9999 -9999 -9999 -9999 -9999 -9999 -9999 -9999 -9999 -9999 -9999 -9999 -9999 -9999 -9999 -9999 81.479 81.568 81.64 81.633 81.548 81.584 81.512 81.546 81.663 81.556 81.788 82.114 82.582 82.61 -9999 -9999 -9999 -9999 -9999 -9999 -9999 -9999 -9999 -9999 -9999 -9999 -9999
-9999 -9999 -9999 -9999 -9999 -9999 -9999 -9999 -9999 -9999 -9999 -9999 -9999 -9999 -9999 -9999 -9999 -9999 -9999 -9999 -9999 -9999 -9999 -9999 -9999 -9999 -9999 -9999 -9999 -9999 -9999 -9999 -9999 -9999 83.559 83.424 83.53 83.425 83.166 82.825 82.756 82.367 82.518 82.346 82.398 82.159 82.587 82.377 82.337 82.26 82.291 82.471 82.203 82.419 82.27 82.274 82.085 82.249 82.096 82.088 82.11 82.158 82.39 82.046 82.163 82.047 82.061 82.027 81.958 82.138 81.979 82.127 82.075 82.053 82.053 82.017 81.956 82.083 82.163 82.077 82.02 81.979 82.143 81.94 81.913 82.043 81.89 81.566 81.791 81.768 81.775 81.868 81.781 81.742 81.633 81.693 81.575 81.716 81.414 -9999 -9999 -9999 -9999 -9999 -9999 -9999 -9999 -9999 -9999 -9999 -9999 -9999 -9999 -9999 -9999 -9999 -9999 -9999 -9999 -9999 -9999 -9999 -9999 -9999 -9999 -9999 -9999 -9999 -9999 -9999 -9999 -9999 -9999 -9999 -9999 -9999 -9999 -9999 -9999 -9999 -9999 -9999 -9999 -9999 -9999 -9999 -9999 -9999 -9999 -9999 -9999 -9999 -9999 -9999 -9999 -9999 -9999 -9999 -9999 -9999 -9999 81.514 81.641 81.57 81.583 81.49 81.523 81.56 81.512 81.59 81.553 81.739 -9999 -9999 -9999 -9999 -9999 -9999 -9999 -9999 -9999 -9999 -9999 -9999 -9999 -9999
-9999 -9999 -9999 -9999 -9999 -9999 -9999 -9999 -9999 -9999 -9999 -9999 -9999 -9999 -9999 -9999 -9999 -9999 -9999 -9999 -9999 -9999 -9999 -9999 -9999 -9999 -9999 -9999 -9999 -9999 -9999 -9999 -9999 -9999 83.723 83.702 83.581 83.48 83.234 82.806 82.782 82.74 82.689 82.551 82.619 82.564 82.546 82.499 82.021 82.406 82.229 82.219 82.381 82.446 82.037 82.229 82.216 82.131 82.138 82.329 81.911 82.206 82.198 82.115 82.098 82.111 82.231 82.027 82.139 82.013 82.037 82.076 82.138 82.025 82.025 82.188 81.953 82.075 82.252 82.047 82.058 81.998 81.964 82.024 82.021 81.969 81.867 81.911 81.758 81.83 81.75 81.798 81.687 81.708 81.751 81.723 81.684 81.784 81.555 -9999 -9999 -9999 -9999 -9999 -9999 -9999 -9999 -9999 -9999 -9999 -9999 -9999 -9999 -9999 -9999 -9999 -9999 -9999 -9999 -9999 -9999 -9999 -9999 -9999 -9999 -9999 -9999 -9999 -9999 -9999 -9999 -9999 -9999 -9999 -9999 -9999 -9999 -9999 -9999 -9999 -9999 -9999 -9999 -9999 -9999 -9999 -9999 -9999 -9999 -9999 -9999 -9999 -9999 -9999 -9999 -9999 -9999 -9999 -9999 -9999 -9999 -9999 -9999 81.478 81.59 81.553 81.624 81.458 81.545 81.458 81.568 -9999 -9999 -9999 -9999 -9999 -9999 -9999 -9999 -9999 -9999 -9999 -9999 -9999 -9999 -9999
-9999 -9999 -9999 -9999 -9999 -9999 -9999 -9999 -9999 -9999 -9999 -9999 -9999 -9999 -9999 -9999 -9999 -9999 -9999 -9999 -9999 -9999 -9999 -9999 -9999 -9999 -9999 -9999 -9999 -9999 -9999 -9999 -9999 83.786 83.76 83.7 83.543 83.217 82.864 82.861 82.823 82.73 82.579 82.648 82.647 82.4 82.69 82.562 82.486 82.468 82.293 82.012 82.307 82.221 82.141 82.173 82.209 82.074 82.252 82.152 82.062 82.051 82.429 81.973 82.15 82.161 82.192 82.187 82.214 82.232 82.095 82.095 82.028 81.974 82.112 82.027 81.984 82.663 82.774 82.115 82.338 82.156 82.54 83.258 82.322 82.131 81.865 81.777 81.85 81.84 81.876 81.717 81.761 81.729 81.775 81.909 81.785 81.866 81.696 81.339 -9999 -9999 -9999 -9999 -9999 -9999 -9999 -9999 -9999 -9999 -9999 -9999 -9999 -9999 -9999 -9999 -9999 -9999 -9999 -9999 -9999 -9999 -9999 -9999 -9999 -9999 -9999 -9999 -9999 -9999 -9999 -9999 -9999 -9999 -9999 -9999 -9999 -9999 -9999 -9999 -9999 -9999 -9999 -9999 -9999 -9999 -9999 -9999 -9999 -9999 -9999 -9999 -9999 -9999 -9999 -9999 -9999 -9999 -9999 -9999 -9999 -9999 -9999 -9999 81.494 81.568 81.48 81.585 81.503 81.441 -9999 -9999 -9999 -9999 -9999 -9999 -9999 -9999 -9999 -9999 -9999 -9999 -9999 -9999 -9999 -9999
-9999 -9999 -9999 -9999 -9999 -9999 -9999 -9999 -9999 -9999 -9999 -9999 -9999 -9999 -9999 -9999 -9999 -9999 -9999 -9999 -9999 -9999 -9999 -9999 -9999 -9999 -9999 -9999 -9999 -9999 -9999 -9999 83.685 83.718 83.778 83.646 83.539 83.293 83.041 82.937 82.844 82.734 82.735 82.542 82.618 82.618 82.544 82.672 82.203 82.485 82.309 82.214 82.224 82.295 82.081 82.437 82.309 82.169 82.138 82.186 82.131 82.16 82.133 82.219 82.164 82.177 82.231 82.159 82.108 82.114 82.031 82.133 82.139 82.164 82.17 82.22 82.247 82.299 83.372 83.952 84.184 84.593 84.416 83.953 82.609 81.867 81.898 81.914 81.948 82.036 82.861 82.435 81.681 81.751 81.765 81.79 81.742 81.656 81.578 81.459 -9999 -9999 -9999 -9999 -9999 -9999 -9999 -9999 -9999 -9999 -9999 -9999 -9999 -9999 -9999 -9999 -9999 -9999 -9999 -9999 -9999 -9999 -9999 -9999 -9999 -9999 -9999 -9999 -9999 -9999 -9999 -9999 -9999 -9999 -9999 -9999 -9999 -9999 -9999 -9999 -9999 -9999 -9999 -9999 -9999 -9999 -9999 -9999 -9999 -9999 -9999 -9999 -9999 -9999 -9999 -9999 -9999 -9999 -9999 -9999 -9999 -9999 -9999 81.387 81.408 81.408 81.527 81.475 81.447 -9999 -9999 -9999 -9999 -9999 -9999 -9999 -9999 -9999 -9999 -9999 -9999 -9999 -9999 -9999 -9999 -9999
-9999 -9999 -9999 -9999 -9999 -9999 -9999 -9999 -9999 -9999 -9999 -9999 -9999 -9999 -9999 -9999 -9999 -9999 -9999 -9999 -9999 -9999 -9999 -9999 -9999 -9999 -9999 -9999 -9999 -9999 -9999 -9999 83.854 83.77 83.755 83.678 83.578 83.244 82.933 82.995 82.872 82.761 82.79 82.697 82.653 82.759 82.3 82.542 82.505 82.524 82.521 82.26 82.012 82.206 82.149 82.231 82.228 82.223 82.145 82.173 82.184 82.234 82.238 82.229 82.258 82.234 82.131 82.162 81.894 82.31 82.223 82.267 82.222 82.203 82.216 82.263 82.433 82.226 82.165 82.222 83.979 83.376 83.3 83.006 82.79 82.929 82.502 82.387 84.166 85.063 84.964 82.557 81.858 81.88 81.796 81.801 81.807 81.848 81.642 81.53 81.338 -9999 -9999 -9999 -9999 -9999 -9999 -9999 -9999 -9999 -9999 -9999 -9999 -9999 -9999 -9999 -9999 -9999 -9999 -9999 -9999 -9999 -9999 -9999 -9999 -9999 -9999 -9999 -9999 -9999 -9999 -9999 -9999 -9999 -9999 -9999 -9999 -9999 -9999 -9999 -9999 -9999 -9999 -9999 -9999 -9999 -9999 -9999 -9999 -9999 -9999 -9999 -9999 -9999 -9999 -9999 -9999 -9999 -9999 -9999 -9999 -9999 -9999 81.385 81.37 81.569 81.411 81.573 81.457 -9999 -9999 -9999 -9999 -9999 -9999 -9999 -9999 -9999 -9999 -9999 -9999 -9999 -9999 -9999 -9999 -9999
-9999 -9999 -9999 -9999 -9999 -9999 -9999 -9999 -9999 -9999 -9999 -9999 -9999 -9999 -9999 -9999 -9999 -9999 -9999 -9999 -9999 -9999 -9999 -9999 -9999 -9999 -9999 -9999 -9999 -9999 -9999 -9999 83.802 83.853 83.648 83.394 83.673 83.214 83.016 82.928 82.796 82.809 82.757 82.79 82.817 82.626 82.645 82.568 82.634 82.293 82.559 82.353 82.277 82.261 82.352 82.194 82.282 82.194 82.166 82.144 82.304 82.229 82.255 82.206 82.311 81.951 82.333 82.169 82.266 82.193 82.242 82.259 82.205 82.19 82.074 82.272 82.233 82.023 82.324 82.171 82.33 82.191 82.255 82.309 83.342 85.893 85.991 86.647 86.104 84.395 84.016 83.235 82.273 81.853 81.869 81.836 81.858 81.736 81.65 81.789 81.485 81.372 -9999 -9999 -9999 -9999 -9999 -9999 -9999 -9999 -9999 -9999 -9999 -9999 -9999 -9999 -9999 -9999 -9999 -9999 -9999 -9999 -9999 -9999 -9999 -9999 -9999 -9999 -9999 -9999 -9999 -9999 -9999 -9999 -9999 -9999 -9999 -9999 -9999 -9999 -9999 -9999 -9999 -9999 -9999 -9999 -9999 -9999 -9999 -9999 -9999 -9999 -9999 -9999 -9999 -9999 -9999 -9999 -9999 -9999 -9999 -9999 -9999 81.402 81.457 81.488 81.511 81.385 81.493 -9999 -9999 -9999 -9999 -9999 -9999 -9999 -9999 -9999 -9999 -9999 -9999 -9999 -9999 -9999 -9999 -9999
-9999 -9999 -9999 -9999 -9999 -9999 -9999 -9999 -9999 -9999 -9999 -9999 -9999 -9999 -9999 -9999 -9999 -9999 -9999 -9999 -9999 -9999 -9999 -9999 -9999 -9999 -9999 -9999 -9999 -9999 -9999 83.8 83.731 83.746 83.732 83.694 83.511 83.157 83.029 82.91 82.907 82.805 82.852 82.657 82.718 82.622 82.68 82.497 82.583 82.534 82.539 82.372 81.962 82.367 82.282 82.326 82.311 82.294 82.298 82.358 82.28 82.338 82.093 82.315 82.242 82.292 82.222 82.231 82.223 82.373 82.301 82.17 82.093 82.291 82.14 82.283 82.267 82.264 82.159 81.908 82.293 82.168 82.275 82.201 82.368 84.55 86.496 87.033 86.17 84.518 83.143 82.958 82.661 82.759 82.568 81.881 81.924 81.829 81.797 81.764 81.534 81.35 81.475 81.505 81.455 -9999 -9999 -9999 -9999 -9999 -9999 -9999 -9999 -9999 -9999 -9999 -9999 -9999 -9999 -9999 -9999 -9999 -9999 -9999 -9999 -9999 -9999 -9999 -9999 -9999 -9999 -9999 -9999 -9999 -9999 -9999 -9999 -9999 -9999 -9999 -9999 -9999 -9999 -9999 -9999 -9999 -9999 -9999 -9999 -9999 -9999 -9999 -9999 -9999 -9999 -9999 -9999 -9999 -9999 -9999 -9999 -9999 81.387 81.447 81.45 81.43 -9999 -9999 -9999 -9999 -9999 -9999 -9999 -9999 -9999 -9999 -9999 -9999 -9999 -9999 -9999 -9999 -9999 -9999 -9999 -9999
-9999 -9999 -9999 -9999 -9999 -9999 -9999 -9999 -9999 -9999 -9999 -9999 -9999 -9999 -9999 -9999 -9999 -9999 -9999 -9999 -9999 -9999 -9999 -9999 -9999 -9999 -9999 -9999 -9999 -9999 83.821 83.836 83.942 83.788 83.695 83.71 83.479 83.054 82.865 83.002 82.891 82.858 82.832 82.806 82.809 82.616 82.626 82.6 82.537 82.327 82.465 82.33 82.293 82.381 82.309 82.371 82.389 82.337 82.308 82.366 82.078 82.257 82.257 82.364 82.153 82.405 82.275 82.548 82.199 82.247 81.953 82.309 82.308 82.264 82.335 82.33 81.97 82.389 82.319 82.272 82.275 81.979 82.27 82.224 82.373 82.195 82.206 82.744 84.045 83.948 83.304 83.12 82.852 82.013 82.011 81.967 82.152 81.948 81.824 82.008 81.612 81.394 82.661 86.976 -9999 -9999 -9999 -9999 -9999 -9999 -9999 -9999 -9999 -9999 -9999 -9999 -9999 -9999 -9999 -9999 -9999 -9999 -9999 -9999 -9999 -9999 -9999 -9999 -9999 -9999 -9999 -9999 -9999 -9999 -9999 -9999 -9999 -9999 -9999 -9999 -9999 -9999 -9999 -9999 -9999 -9999 -9999 -9999 -9999 -9999 -9999 -9999 -9999 -9999 -9999 -9999 -9999 -9999 -9999 -9999 -9999 -9999 81.485 81.49 81.411 81.422 -9999 -9999 -9999 -9999 -9999 -9999 -9999 -9999 -9999 -9999 -9999 -9999 -9999 -9999 -9999 -9999 -9999 -9999 -9999 -9999
-9999 -9999 -9999 -9999 -9999 -9999 -9999 -9999 -9999 -9999 -9999 -9999 -9999 -9999 -9999 -9999 -9999 -9999 -9999 -9999 -9999 -9999 -9999 -9999 -9999 -9999 -9999 -9999 -9999 -9999 83.889 83.833 83.733 83.591 83.797 83.599 83.427 83.328 83.064 82.978 82.95 82.851 82.908 82.874 82.789 82.695 82.697 82.561 82.517 82.497 82.369 82.324 82.343 82.312 82.313 82.398 82.348 82.023 82.343 82.27 82.246 82.254 82.147 82.284 82.33 82.367 82.306 82.303 82.032 82.344 82.265 82.322 82.309 82.305 81.959 82.335 82.266 82.268 82.279 82.327 81.932 82.171 82.32 81.953 82.303 82.252 81.937 82.134 82.079 82.179 82.296 82.467 82.128 82.099 82.085 82.038 81.979 81.96 81.901 81.9 81.827 81.682 81.782 81.917 -9999 -9999 -9999 -9999 -9999 -9999 -9999 -9999 -9999 -9999 -9999 -9999 -9999 -9999 -9999 -9999 -9999 -9999 -9999 -9999 -9999 -9999 -9999 -9999 -9999 -9999 -9999 -9999 -9999 -9999 -9999 81.387 81.428 81.579 -9999 -9999 -9999 -9999 -9999 -9999 -9999 -9999 -9999 -9999 -9999 -9999 -9999 -9999 -9999 -9999 -9999 -9999 -9999 -9999 -9999 -9999 -9999 81.387 81.486 81.472 81.369 81.453 81.498 -9999 -9999 -9999 -9999 -9999 -9999 -9999 -9999 -9999 -9999 -9999 -9999 -9999 -9999 -9999 -9999 -9999 -9999 -9999
-9999 -9999 -9999 -9999 -9999 -9999 -9999 -9999 -9999 -9999 -9999 -9999 -9999 -9999 -9999 -9999 -9999 -9999 -9999 -9999 -9999 -9999 -9999 -9999 -9999 -9999 -9999 -9999 -9999 -9999 83.83 83.806 83.746 83.699 83.74 83.665 83.419 83.251 83.109 83.068 83.017 82.924 82.946 82.875 82.797 82.587 82.65 82.579 82.484 82.382 82.343 82.269 82.263 82.266 82.332 82.334 82.294 82.281 82.417 82.316 82.057 82.378 82.288 82.293 82.347 82.34 82.249 82.255 82.264 82.229 82.259 82.417 82.036 82.312 82.299 82.221 82.325 82.196 82.41 82.225 82.2 82.369 81.938 82.447 82.258 82.218 82.177 82.111 82.172 81.895 82.112 81.955 82.106 82.119 82.038 82.103 82.164 81.718 81.836 81.97 82.807 82.751 82.409 81.395 -9999 -9999 -9999 -9999 -9999 -9999 -9999 -9999 -9999 -9999 -9999 -9999 -9999 -9999 -9999 -9999 -9999 -9999 -9999 -9999 -9999 -9999 -9999 -9999 81.388 81.438 -9999 -9999 -9999 -9999 -9999 81.427 83.061 82.71 -9999 -9999 -9999 -9999 -9999 -9999 -9999 -9999 -9999 -9999 -9999 -9999 -9999 -9999 -9999 -9999 -9999 -9999 -9999 -9999 -9999 -9999 -9999 -9999 81.42 81.474 81.467 81.346 81.361 81.314 -9999 -9999 -9999 -9999 -9999 -9999 -9999 -9999 -9999 -9999 -9999 -9999 -9999 -9999 -9999 -9999 -9999 -9999
-9999 -9999 -9999 -9999 -9999 -9999 -9999 -9999 -9999 -9999 -9999 -9999 -9999 -9999 -9999 -9999 -9999 -9999 -9999 -9999 -9999 -9999 -9999 -9999 -9999 -9999 -9999 -9999 -9999 -9999 83.853 83.77 83.802 83.617 83.571 83.421 83.453 83.308 83.139 83.133 83.122 82.974 82.95 82.997 82.839 82.762 82.655 82.476 82.393 82.265 82.42 82.347 82.089 82.412 82.4 82.269 82.168 82.241 82.231 82.295 82.297 82.335 82.317 82.34 82.521 82.33 82.327 82.277 82.297 82.346 82.317 82.387 82.302 82.25 82.451 82.013 82.309 82.279 82.306 82.366 82.066 82.32 82.319 82.199 82.24 82.137 81.804 82.107 82.141 82.15 82.14 81.966 81.847 82.168 82.05 82.017 81.842 82.097 82.182 81.925 81.897 82.479 83.468 81.399 81.344 -9999 -9999 -9999 -9999 -9999 -9999 -9999 -9999 -9999 -9999 -9999 -9999 -9999 -9999 -9999 -9999 -9999 -9999 -9999 -9999 -9999 -9999 -9999 81.415 82.928 -9999 -9999 -9999 -9999 81.387 81.814 83.032 82.154 81.781 -9999 -9999 -9999 -9999 -9999 -9999 -9999 -9999 -9999 -9999 -9999 -9999 -9999 -9999 -9999 -9999 -9999 -9999 -9999 -9999 -9999 -9999 -9999 81.535 81.482 81.538 81.302 81.33 81.349 -9999 -9999 -9999 -9999 -9999 -9999 -9999 -9999 -9999 -9999 -9999 -9999 -9999 -9999 -9999 -9999 -9999 -9999
-9999 -9999 -9999 -9999 -9999 -9999 -9999 -9999 -9999 -9999 -9999 -9999 -9999 -9999 -9999 -9999 -9999 -9999 -9999 -9999 -9999 -9999 -9999 -9999 -9999 -9999 -9999 -9999 -9999 83.778 83.716 83.812 83.739 83.738 83.692 83.689 83.551 83.344 83.248 83.171 83.112 82.957 83.06 82.916 82.699 82.779 82.53 82.345 82.665 81.864 82.39 82.577 83.385 83.23 82.718 82.43 82.332 82.216 82.068 82.23 82.263 82.105 82.273 82.362 82.324 82.294 82.364 82.103 82.35 82.361 82.25 82.378 81.909 82.371 82.328 82.272 82.275 82.039 82.401 82.291 82.233 82.214 82.211 82.148 82.074 82.202 82.232 82.141 82.158 81.849 82.138 82.133 82.035 81.997 82.052 81.816 81.995 84.056 85.679 83.009 82.817 81.887 81.646 81.625 81.352 -9999 -9999 -9999 -9999 -9999 -9999 -9999 -9999 -9999 -9999 -9999 -9999 -9999 -9999 -9999 -9999 -9999 -9999 -9999 -9999 -9999 -9999 -9999 -9999 -9999 -9999 -9999 -9999 -9999 -9999 81.702 82.4 82.178 81.98 81.859 -9999 -9999 -9999 -9999 -9999 81.387 81.387 81.387 81.387 81.387 81.387 81.387 -9999 -9999 -9999 -9999 -9999 -9999 -9999 -9999 -9999 -9999 81.379 81.457 81.334 81.31 81.32 81.324 81.343 -9999 -9999 -9999 -9999 -9999 -9999 -9999 -9999 -9999 -9999 -9999 -9999 -9999 -9999 -9999 -9999 -9999
-9999 -9999 -9999 -9999 -9999 -9999 -9999 -9999 -9999 -9999 -9999 -9999 -9999 -9999 -9999 -9999 -9999 -9999 -9999 -9999 -9999 -9999 -9999 -9999 -9999 -9999 -9999 83.771 83.916 83.882 83.927 83.92 83.866 83.779 83.727 83.605 83.459 83.344 83.154 83.127 83.18 83.043 82.955 82.947 82.848 82.624 82.241 82.441 82.558 82.911 83.716 84.518 85.188 85.161 84.678 83.88 82.954 82.341 82.339 82.34 82.141 82.308 82.322 82.307 82.377 82.109 82.369 82.367 82.602 83.431 83.741 82.385 82.445 82.321 82.44 81.961 82.384 82.326 82.289 82.302 82.235 81.923 82.233 82.19 82.215 82.233 82.176 82.267 82.088 82.146 82.119 82.173 82.007 82.199 82.082 82.031 82.022 84.07 85.076 84.013 82.418 81.68 81.696 81.554 81.35 81.375 -9999 -9999 -9999 -9999 -9999 -9999 -9999 -9999 -9999 -9999 -9999 -9999 -9999 -9999 -9999 -9999 -9999 -9999 -9999 -9999 -9999 -9999 -9999 -9999 -9999 -9999 -9999 -9999 -9999 -9999 81.455 81.628 82.002 82.762 81.62 -9999 81.387 81.582 82.072 82.38 82.533 82.366 82.837 82.967 82.435 81.971 81.969 81.442 -9999 -9999 -9999 -9999 -9999 81.387 81.374 81.377 81.408 81.397 81.375 81.341 81.323 81.312 81.326 -9999 -9999 -9999 -9999 -9999 -9999 -9999 -9999 -9999 -9999 -9999 -9999 -9999 -9999 -9999 -9999 -9999
-9999 -9999 -9999 -9999 -9999 -9999 -9999 -9999 -9999 -9999 -9999 -9999 -9999 -9999 -9999 -9999 -9999 -9999 -9999 -9999 -9999 -9999 -9999 -9999 -9999 -9999 83.835 83.888 83.922 83.964 83.975 83.945 83.975 83.684 83.58 83.569 83.642 83.591 83.364 83.323 83.163 83.106 82.982 82.993 82.878 82.628 82.435 82.448 82.523 83.54 85.007 85.579 86.39 86.796 87.309 86.182 85.942 84.409 82.84 82.442 82.248 82.444 82.087 82.233 82.286 82.345 82.302 82.386 82.689 83.059 82.45 82.371 82.359 82.083 82.269 82.341 82.296 82.244 82.434 82.096 82.268 82.272 82.195 82.261 81.951 82.3 82.245 82.138 82.133 82.145 82.121 82.185 82.062 82.071 82.225 82.053 82.097 82.043 86.365 86.624 82.02 82.231 81.79 81.644 81.387 81.389 -9999 -9999 -9999 -9999 -9999 -9999 -9999 -9999 -9999 -9999 -9999 -9999 -9999 -9999 -9999 -9999 -9999 -9999 -9999 -9999 -9999 -9999 -9999 -9999 -9999 -9999 -9999 -9999 -9999 -9999 -9999 81.416 82.196 82.235 82.292 81.495 81.786 84.507 85.405 85.263 84.987 85.073 85.85 85.903 84.79 83.231 82.535 82.004 81.415 81.387 81.387 81.387 81.335 81.411 81.446 81.356 81.4 81.454 81.368 81.318 81.478 81.344 81.34 -9999 -9999 -9999 -9999 -9999 -9999 -9999 -9999 -9999 -9999 -9999 -9999 -9999 -9999 -9999 -9999 -9999
-9999 -9999 -9999 -9999 -9999 -9999 -9999 -9999 -9999 -9999 -9999 -9999 -9999 -9999 -9999 -9999 -9999 -9999 -9999 -9999 -9999 -9999 -9999 -9999 -9999 83.91 83.916 83.95 83.9 83.833 83.915 83.855 83.773 83.776 83.749 83.675 83.637 83.628 83.529 83.39 83.286 83.009 83.019 82.999 82.85 82.644 82.51 82.556 82.371 82.989 84.807 85.77 87.76 88.592 89.051 89.651 89.283 88.913 87.424 83.066 82.562 82.385 82.258 82.251 82.179 82.361 82.306 82.271 82.279 82.315 82.039 82.334 82.315 82.337 82.349 82.26 82.135 82.365 82.308 82.238 82.333 82.23 82.236 82.301 82.292 82.212 82.216 81.969 82.386 82.082 82.151 82.107 82.136 82.175 82.052 82.068 82.164 81.979 81.956 81.893 81.97 82.002 81.791 81.595 81.427 81.431 81.414 -9999 -9999 -9999 -9999 -9999 -9999 -9999 -9999 -9999 -9999 -9999 -9999 -9999 -9999 -9999 -9999 -9999 -9999 -9999 -9999 -9999 -9999 -9999 -9999 -9999 -9999 -9999 -9999 -9999 -9999 81.394 82.644 83.121 83.002 82.145 82.521 86.108 87.457 87.235 86.909 86.506 86.452 86.662 85.911 84.811 84.746 83.189 82.35 81.476 81.414 81.336 81.374 81.44 81.461 81.447 81.486 81.478 81.456 81.359 81.31 81.32 81.388 81.35 -9999 -9999 -9999 -9999 -9999 -9999 -9999 -9999 -9999 -9999 -9999 -9999 -9999 -9999 -9999 -9999
-9999 -9999 -9999 -9999 -9999 -9999 -9999 -9999 -9999 -9999 -9999 -9999 -9999 -9999 -9999 -9999 -9999 -9999 -9999 -9999 -9999 -9999 84.419 83.935 83.892 83.913 83.952 84.018 84.065 83.953 83.919 83.866 83.873 83.797 83.784 83.727 83.591 83.605 83.568 83.423 83.322 83.151 83.064 82.976 82.837 82.637 82.627 82.66 82.445 82.813 84.442 85.782 86.997 88.236 88.866 89.131 89.63 89.405 87.479 84.888 83.647 84.221 84.146 83.121 82.599 82.209 82.294 82.39 82.415 82.298 82.03 82.256 82.352 82.415 81.974 82.331 82.3 82.362 82.29 82.057 82.289 82.289 82.331 82.225 82.361 82.045 82.172 82.244 82.165 82.154 82.129 82.186 82.092 82.175 81.871 82.096 81.994 81.975 81.977 81.907 81.905 81.912 81.814 81.712 81.689 81.461 81.418 -9999 -9999 -9999 -9999 -9999 -9999 -9999 -9999 -9999 -9999 -9999 -9999 -9999 -9999 -9999 -9999 -9999 -9999 -9999 -9999 -9999 -9999 -9999 -9999 -9999 -9999 -9999 -9999 -9999 -9999 81.774 84.511 85.343 83.058 82.803 82.845 85.301 87.875 88.439 87.819 87.093 86.592 86.799 87.026 87.397 86.846 85.698 83.753 82.161 81.482 81.466 81.394 81.436 81.457 81.406 81.473 81.501 81.452 81.521 81.446 81.337 81.346 81.434 -9999 -9999 -9999 -9999 -9999 -9999 -9999 -9999 -9999 -9999 -9999 -9999 -9999 -9999 -9999 -9999
-9999 -9999 -9999 -9999 -9999 -9999 -9999 -9999 -9999 -9999 -9999 -9999 -9999 -9999 -9999 -9999 -9999 -9999 -9999 -9999 -9999 -9999 86.051 85.794 83.919 83.888 83.942 83.963 84.017 83.966 83.906 83.76 83.827 83.753 83.803 83.815 83.766 83.72 83.584 83.512 83.415 83.311 83.139 82.954 82.843 82.772 82.604 82.64 82.629 82.773 84.347 85.398 85.774 86.526 87.479 87.754 87.728 87.891 87.468 86.331 85.551 84.325 84.574 84.271 83.58 83.494 82.457 82.22 82.255 82.442 82.284 82.325 82.367 82.345 82.361 82.257 82.297 82.306 82.316 82.271 82.299 82.288 82.002 82.319 82.32 82.184 82.134 82.22 82.179 82.169 82.208 82.185 82.284 82.078 82.085 82.053 82.037 81.956 81.972 81.863 81.874 81.906 81.755 81.732 81.722 81.719 81.434 81.443 -9999 -9999 -9999 -9999 -9999 -9999 -9999 -9999 -9999 -9999 -9999 -9999 -9999 -9999 -9999 -9999 -9999 -9999 -9999 -9999 -9999 -9999 -9999 -9999 -9999 -9999 -9999 -9999 -9999 -9999 82.467 84.713 82.903 83.058 83.425 84.578 87.662 88.496 87.875 87.03 86.88 86.944 87.759 88.508 88.567 87.623 85.141 83.215 81.987 81.563 81.569 81.525 81.619 81.594 81.518 82.328 81.775 81.4 81.393 81.486 81.482 81.463 -9999 -9999 -9999 -9999 -9999 -9999 -9999 -9999 -9999 -9999 -9999 -9999 -9999 -9999 -9999 -9999
-9999 -9999 -9999 -9999 -9999 -9999 -9999 -9999 -9999 -9999 -9999 -9999 -9999 -9999 -9999 -9999 -9999 -9999 -9999 -9999 -9999 -9999 84.089 84.691 84.456 83.976 83.987 83.993 84.064 83.956 83.929 83.919 83.895 83.96 83.954 83.859 83.801 83.702 83.631 83.453 83.441 83.313 83.168 82.944 82.731 82.775 82.791 82.734 82.801 82.743 83.508 84.43 84.183 84.686 85.669 85.953 85.616 85.586 86.033 85.91 85.037 85.125 84.788 84.739 84.826 83.82 83.076 82.483 82.559 82.148 82.324 82.254 82.286 82.045 82.247 82.48 82.377 82.215 82.283 82.267 82.403 82.264 82.327 82.258 82.28 82.219 82.239 82.232 82.153 82.055 82.219 82.078 82.172 82.145 82.063 82.076 82.1 82.053 81.923 81.816 81.827 81.823 81.807 81.836 81.732 81.633 81.632 81.447 81.378 -9999 -9999 -9999 -9999 -9999 -9999 -9999 -9999 -9999 -9999 -9999 -9999 -9999 -9999 -9999 -9999 -9999 -9999 -9999 -9999 -9999 -9999 -9999 -9999 -9999 -9999 -9999 -9999 -9999 -9999 -9999 -9999 81.448 81.881 82.482 83.716 84.416 85.231 85.886 86.687 87.343 87.882 87.327 87.095 86.248 85.386 84.359 82.965 82.046 81.663 81.651 81.777 81.577 81.617 81.432 81.514 81.525 81.483 81.532 81.416 81.319 -9999 -9999 -9999 -9999 -9999 -9999 -9999 -9999 -9999 -9999 -9999 -9999 -9999 -9999 -9999 -9999
-9999 -9999 -9999 -9999 -9999 -9999 -9999 -9999 -9999 -9999 -9999 -9999 -9999 -9999 -9999 -9999 -9999 -9999 -9999 -9999 -9999 84.065 83.973 84.048 84.158 84.024 83.976 83.998 83.999 84.083 83.994 83.908 83.96 83.907 83.758 83.854 83.857 83.723 83.678 83.579 83.431 83.378 83.271 83.054 82.877 82.739 82.689 82.941 82.622 82.871 82.85 82.818 83.384 83.641 83.771 83.959 84.158 84.156 84.756 85.741 85.406 85.107 85.296 85.3 84.97 84.527 83.34 83.229 83.79 82.581 82.256 82.207 82.352 82.337 82.355 82.279 82.338 81.976 82.293 82.259 82.231 82.317 82.327 82.286 82.293 82.271 82.129 81.965 82.202 82.304 82.312 82.086 82.214 82.042 82.045 81.99 81.871 82.063 82.027 81.874 81.844 81.903 81.864 81.623 81.751 81.918 81.732 81.597 81.498 -9999 -9999 -9999 -9999 -9999 -9999 -9999 -9999 -9999 -9999 -9999 -9999 -9999 -9999 -9999 -9999 -9999 -9999 -9999 -9999 -9999 -9999 -9999 -9999 -9999 -9999 -9999 -9999 -9999 -9999 -9999 -9999 -9999 -9999 -9999 81.679 82.014 82.865 83.811 84.056 86.041 86.96 86.806 85.828 85.339 84.678 84.255 83.861 82.646 82.962 83.073 82.752 82.01 81.689 81.478 81.48 81.549 81.437 81.516 81.363 -9999 -9999 -9999 -9999 -9999 -9999 -9999 -9999 -9999 -9999 -9999 -9999 -9999 -9999 -9999 -9999 -9999
-9999 -9999 -9999 -9999 -9999 -9999 -9999 -9999 -9999 -9999 -9999 -9999 -9999 -9999 -9999 -9999 -9999 -9999 -9999 -9999 -9999 84.076 84.089 84.096 84.056 84.062 84.027 84.029 84.012 83.938 84.018 84.106 84.048 83.996 84.074 84.004 83.861 83.717 83.7 83.689 83.473 83.388 83.34 83.225 82.99 82.844 82.852 82.665 83.018 82.672 82.857 82.652 82.591 82.737 82.867 82.898 82.967 82.953 83.462 84.064 84.304 84.562 85.296 85.576 84.659 84.271 84.079 83.27 84.439 83.404 82.59 82.319 82.38 82.329 82.293 82.367 82.244 82.369 82.312 82.267 82.272 82.356 82.256 82.303 82.313 82.337 82.278 82.153 82.206 82.136 82.232 82.202 82.2 81.921 81.984 82.078 82.042 81.963 82.016 81.945 81.845 82.003 81.999 81.932 81.786 81.778 81.783 81.628 81.679 81.424 -9999 -9999 -9999 -9999 -9999 -9999 -9999 -9999 -9999 -9999 -9999 -9999 -9999 -9999 -9999 -9999 -9999 -9999 -9999 -9999 -9999 -9999 -9999 -9999 -9999 -9999 -9999 -9999 -9999 -9999 -9999 -9999 -9999 -9999 -9999 -9999 81.457 81.692 82.283 83.34 84.436 85.3 85.2 85.185 84.277 84.088 83.668 83.296 83.164 83.677 83.318 82.417 81.942 81.899 81.82 81.742 81.474 81.416 -9999 -9999 -9999 -9999 -9999 -9999 -9999 -9999 -9999 -9999 -9999 -9999 -9999 -9999 -9999 -9999 -9999 -9999
-9999 -9999 -9999 -9999 -9999 -9999 -9999 -9999 -9999 -9999 -9999 -9999 -9999 -9999 -9999 -9999 -9999 -9999 -9999 -9999 -9999 84.251 84.208 84.138 84.067 84.117 84.098 84.097 84.099 84.09 83.979 84.079 84.026 84.017 84.019 83.917 83.737 83.765 83.719 83.715 83.704 83.588 83.506 83.384 83.29 83.148 82.926 82.817 82.744 82.308 82.812 83.006 82.925 82.77 82.675 82.829 83.001 83.236 82.91 82.892 83.302 83.832 84.365 84.693 84.896 84.543 84.168 84.069 84.075 84.617 84.447 84.055 83.383 82.375 82.22 82.261 82.276 82.282 82.245 82.686 82.995 82.652 82.362 82.267 82.202 82.203 82.264 82.243 82.175 82.224 82.172 81.934 82.062 81.991 82.032 82.079 82.079 82.246 81.706 81.981 82.103 81.9 81.945 81.913 81.858 81.818 81.782 81.594 81.752 81.398 -9999 -9999 -9999 -9999 -9999 -9999 -9999 -9999 -9999 -9999 -9999 -9999 -9999 -9999 -9999 -9999 -9999 -9999 -9999 -9999 -9999 -9999 -9999 -9999 -9999 -9999 -9999 -9999 -9999 -9999 -9999 -9999 -9999 -9999 -9999 -9999 -9999 -9999 -9999 81.585 82.676 83.802 84.386 84.231 83.428 82.751 82.693 83.612 83.243 83.104 83.221 83.126 83.065 82.543 82.015 81.852 81.474 -9999 -9999 -9999 -9999 -9999 -9999 -9999 -9999 -9999 -9999 -9999 -9999 -9999 -9999 -9999 -9999 -9999 -9999 -9999
-9999 -9999 -9999 -9999 -9999 -9999 -9999 -9999 -9999 -9999 -9999 -9999 -9999 -9999 -9999 -9999 -9999 -9999 -9999 -9999 -9999 84.195 84.114 84.191 84.223 84.097 84.074 84.112 84.087 84.086 84.138 83.996 84.152 84.051 84.01 84.037 83.944 83.892 83.847 83.822 83.789 83.706 83.604 83.465 83.286 83.267 83.032 83.045 83.05 82.77 82.877 82.904 82.903 82.89 82.43 82.843 82.86 82.943 83.121 82.997 82.832 82.964 83.275 83.809 84.237 84.016 84.448 84.661 84.302 84.1 85.192 85.086 84.207 83.082 82.365 82.198 82.211 82.145 82.561 83.119 83.737 83.08 82.374 82.439 82.213 82.238 82.21 82.177 82.094 82.186 82.117 82.22 82.121 82.122 82.021 82.142 82.067 82.063 82.134 82.056 82.008 81.772 81.966 81.903 81.918 82.052 81.83 81.923 81.801 81.494 81.379 -9999 -9999 -9999 -9999 -9999 -9999 -9999 -9999 -9999 -9999 -9999 -9999 -9999 -9999 -9999 -9999 -9999 -9999 -9999 -9999 -9999 -9999 -9999 -9999 -9999 -9999 -9999 -9999 -9999 -9999 -9999 -9999 -9999 -9999 -9999 -9999 -9999 -9999 -9999 -9999 81.749 81.88 82.126 82.018 81.793 81.801 81.963 82.384 82.687 82.22 82.672 82.524 82.026 82.169 81.927 -9999 -9999 -9999 -9999 -9999 -9999 -9999 -9999 -9999 -9999 -9999 -9999 -9999 -9999 -9999 -9999 -9999 -9999 -9999 -9999
-9999 -9999 -9999 -9999 -9999 -9999 -9999 -9999 -9999 -9999 -9999 -9999 -9999 -9999 -9999 -9999 -9999 -9999 -9999 -9999 -9999 84.207 84.165 84.215 84.184 84.187 84.164 84.122 84.154 84.134 84.159 84.111 84.101 84.065 84.078 83.955 83.895 83.859 83.901 83.805 83.667 83.809 83.693 83.561 83.566 83.34 83.298 83.087 83.158 83.022 82.914 82.909 82.912 82.846 82.91 82.959 82.862 83.031 83.087 83.203 83.019 83.091 82.904 82.946 83.563 83.935 83.85 84.038 84.448 84.295 84.078 84.264 84.638 84.145 83.258 82.596 82.334 82.301 82.306 82.68 83.887 82.718 82.346 82.371 82.268 82.247 82.169 82.199 82.142 82.22 82.17 82.124 82.027 82.014 82.209 82.196 82.163 82.958 83.486 82.895 81.995 81.991 81.969 81.928 82.158 81.942 81.874 81.908 81.749 81.794 81.362 81.4 -9999 -9999 -9999 -9999 -9999 -9999 -9999 -9999 -9999 -9999 -9999 -9999 -9999 -9999 -9999 -9999 -9999 -9999 -9999 -9999 -9999 -9999 -9999 -9999 -9999 -9999 -9999 -9999 -9999 -9999 -9999 -9999 -9999 -9999 -9999 -9999 -9999 -9999 -9999 -9999 -9999 -9999 81.439 81.524 81.588 81.657 81.718 81.678 81.686 81.619 81.613 81.634 81.563 81.557 -9999 -9999 -9999 -9999 -9999 -9999 -9999 -9999 -9999 -9999 -9999 -9999 -9999 -9999 -9999 -9999 -9999 -9999 -9999 -9999
-9999 -9999 -9999 -9999 -9999 -9999 -9999 -9999 -9999 -9999 -9999 -9999 -9999 -9999 -9999 -9999 -9999 -9999 -9999 -9999 -9999 84.574 84.219 84.208 84.246 84.214 84.16 84.168 84.174 84.143 84.224 84.184 84.093 84.085 83.972 83.926 83.914 83.913 83.926 83.98 83.859 83.859 83.784 83.673 83.6 83.475 83.42 83.204 83.203 83.17 83.151 83.106 82.96 82.997 83.047 83.014 82.939 83.054 83.238 82.856 83.182 83.016 83.079 83.086 83.283 83.389 83.801 83.923 83.914 83.958 84.522 83.308 83.374 84 83.249 83.77 82.852 82.371 82.311 82.059 82.328 82.29 82.38 82.158 82.336 82.229 82.201 82.264 82.167 82.147 82.059 81.971 82.192 82.141 82.146 82.202 82.452 84.428 85.312 83.633 82.497 82.107 81.913 81.956 81.743 81.896 82.007 81.768 81.823 81.73 81.538 81.386 -9999 -9999 -9999 -9999 -9999 -9999 -9999 -9999 -9999 -9999 -9999 -9999 -9999 -9999 -9999 -9999 -9999 -9999 -9999 -9999 -9999 -9999 -9999 -9999 -9999 -9999 -9999 -9999 -9999 -9999 -9999 -9999 -9999 -9999 -9999 -9999 -9999 -9999 -9999 -9999 -9999 -9999 81.401 81.449 81.436 81.404 81.484 81.452 81.499 81.6 81.59 81.472 81.433 81.493 81.684 -9999 -9999 -9999 -9999 -9999 -9999 -9999 -9999 -9999 -9999 -9999 -9999 -9999 -9999 -9999 -9999 -9999 -9999 -9999
-9999 -9999 -9999 -9999 -9999 -9999 -9999 -9999 -9999 -9999 -9999 -9999 -9999 -9999 -9999 -9999 -9999 -9999 -9999 -9999 -9999 84.147 84.226 84.26 84.318 84.272 84.215 84.264 84.158 84.254 84.147 84.128 84.139 84.117 84.051 84.06 83.996 84.026 83.98 83.923 83.936 83.932 83.651 83.632 83.711 83.661 83.491 83.45 83.278 83.25 83.176 83.153 82.89 83.073 83.046 83.109 83.077 82.727 83.236 83.779 84.4 84.393 83.631 83.071 83.42 83.729 85.173 85.7 85.262 84.608 84.458 83.888 82.649 82.623 82.925 83.326 83.721 82.849 82.592 82.423 82.375 82.379 82.285 82.378 82.84 82.28 82.217 82.219 82.172 81.963 82.376 82.405 82.88 83.141 83.346 83.777 84.162 85.288 86.19 85.176 83.91 82.714 82.116 82.066 81.98 81.886 82.017 81.807 81.824 81.925 81.796 81.573 81.42 81.699 -9999 -9999 -9999 -9999 -9999 -9999 -9999 -9999 -9999 -9999 -9999 -9999 -9999 -9999 -9999 -9999 -9999 -9999 -9999 -9999 -9999 -9999 -9999 -9999 -9999 -9999 -9999 -9999 -9999 -9999 -9999 -9999 -9999 -9999 -9999 -9999 -9999 -9999 -9999 -9999 81.387 81.397 81.371 81.438 81.511 81.577 81.598 81.553 81.484 81.557 81.495 81.53 81.537 -9999 -9999 -9999 -9999 -9999 -9999 -9999 -9999 -9999 -9999 -9999 -9999 -9999 -9999 -9999 -9999 -9999 -9999 -9999
-9999 -9999 -9999 -9999 -9999 -9999 -9999 -9999 -9999 -9999 -9999 -9999 -9999 -9999 -9999 -9999 -9999 -9999 -9999 -9999 -9999 84.343 84.275 84.327 84.296 84.277 84.229 84.25 84.208 84.175 84.182 84.177 84.157 84.102 84.083 84.037 84.006 83.867 84.013 84.04 84.017 83.972 83.974 83.955 83.805 83.659 83.608 83.548 83.571 83.329 83.275 83.271 83.196 82.727 83.155 83.104 83.132 82.755 83.654 84.155 85.207 85.572 84.798 83.576 83.586 84.161 85.723 86.947 87.1 86.203 85.334 84.037 82.742 82.411 82.536 82.763 82.659 82.852 83.067 82.855 82.421 82.293 82.336 82.317 82.314 82.219 82.559 82.122 82.099 82.051 82.026 82.93 84.529 85.683 85.89 87.707 87.068 87.386 87.002 86.596 85.014 82.877 82.308 82.058 82.114 82.027 81.892 81.842 81.865 81.837 81.746 81.706 82.762 82.174 -9999 -9999 -9999 -9999 -9999 -9999 -9999 -9999 -9999 -9999 -9999 -9999 -9999 -9999 -9999 -9999 -9999 -9999 -9999 -9999 -9999 -9999 -9999 -9999 -9999 -9999 -9999 -9999 -9999 -9999 -9999 -9999 -9999 -9999 -9999 -9999 -9999 -9999 -9999 -9999 81.387 81.397 81.463 81.511 81.591 81.516 81.561 81.527 81.647 81.6 81.57 81.567 81.522 81.543 -9999 -9999 -9999 -9999 -9999 -9999 -9999 -9999 -9999 -9999 -9999 -9999 -9999 -9999 -9999 -9999 -9999 -9999
-9999 -9999 -9999 -9999 -9999 -9999 -9999 -9999 -9999 -9999 -9999 -9999 -9999 -9999 -9999 -9999 -9999 -9999 -9999 -9999 -9999 84.372 84.304 84.318 84.223 84.219 84.312 84.256 84.262 84.198 84.23 84.204 84.096 84.109 84.009 84.094 84.04 83.989 84.067 84.017 84.004 83.991 83.974 83.915 83.753 83.674 83.575 83.632 83.551 83.438 83.354 83.368 83.333 83.162 83.311 83.19 83.186 83.293 83.412 83.851 84.739 85.73 85.443 83.928 83.727 84.752 85.878 87.339 88.363 87.633 85.922 84.162 82.782 82.552 82.636 82.765 82.606 82.698 83.375 83.038 82.41 82.486 82.387 82.272 81.955 82.3 82.19 82.141 82.175 82.15 81.957 82.763 85.027 86.959 88.296 90.004 90.848 90.41 90.04 89.927 86.624 83.642 83.494 83.697 83.094 82.033 81.794 81.711 81.909 81.831 82.462 82.01 81.588 81.609 -9999 -9999 -9999 -9999 -9999 -9999 -9999 -9999 -9999 -9999 -9999 -9999 -9999 -9999 -9999 -9999 -9999 -9999 -9999 -9999 -9999 -9999 -9999 -9999 -9999 -9999 -9999 -9999 -9999 -9999 -9999 -9999 -9999 -9999 -9999 -9999 -9999 -9999 -9999 -9999 81.388 81.609 81.49 81.48 81.49 81.434 81.529 81.453 81.498 81.564 81.545 81.559 81.665 81.485 -9999 -9999 -9999 -9999 -9999 -9999 -9999 -9999 -9999 -9999 -9999 -9999 -9999 -9999 -9999 -9999 -9999 -9999
-9999 -9999 -9999 -9999 -9999 -9999 -9999 -9999 -9999 -9999 -9999 -9999 -9999 -9999 -9999 -9999 -9999 -9999 -9999 -9999 -9999 84.369 84.349 84.281 84.369 84.283 84.308 84.25 84.312 84.26 84.231 84.133 84.149 84.145 84.137 84.055 84.04 84.085 84.024 84.027 83.9 83.894 83.967 83.931 83.883 83.88 83.738 83.765 83.654 83.628 83.548 83.516 83.382 83.296 83.288 83.182 83.216 83.176 83.224 83.432 83.378 84.032 84.073 84.01 84.285 85.476 86.503 87.931 89.328 88.86 87.22 83.885 82.719 83.01 82.538 82.572 82.604 82.573 82.495 82.451 82.447 82.467 82.005 82.462 82.336 82.263 82.204 82.221 82.112 82.075 81.96 83.112 85.183 86.213 87.912 89.789 89.958 90.593 88.145 86.469 85.881 84.617 84.085 83.524 83.537 82.33 82.029 81.853 81.882 81.932 81.94 81.853 81.961 81.595 -9999 -9999 -9999 -9999 -9999 -9999 -9999 -9999 -9999 -9999 -9999 -9999 -9999 -9999 -9999 -9999 -9999 -9999 -9999 -9999 -9999 -9999 -9999 -9999 -9999 -9999 -9999 -9999 -9999 -9999 -9999 -9999 -9999 -9999 -9999 -9999 -9999 -9999 -9999 -9999 -9999 81.552 81.569 81.595 81.609 81.535 81.516 81.636 81.652 81.601 81.651 81.66 81.694 81.719 -9999 -9999 -9999 -9999 -9999 -9999 -9999 -9999 -9999 -9999 -9999 -9999 -9999 -9999 -9999 -9999 -9999 -9999
-9999 -9999 -9999 -9999 -9999 -9999 -9999 -9999 -9999 -9999 -9999 -9999 -9999 -9999 -9999 -9999 -9999 -9999 -9999 -9999 -9999 84.353 84.352 84.394 84.373 84.352 84.28 84.2 84.174 84.289 84.326 84.124 84.159 84.11 84.098 83.997 84.01 84.043 84.014 84.101 84.065 84.045 83.966 83.957 83.865 83.902 83.864 83.806 83.542 83.59 83.524 83.438 83.443 83.401 83.316 83.162 83.209 83.283 83.321 83.273 83.37 83.512 83.611 83.849 85.12 86.001 87.344 88.858 89.941 89.671 87.931 84.273 82.893 82.541 82.677 82.521 82.561 82.523 82.577 82.434 82.449 82.412 82.316 82.382 82.314 82.335 82.224 82.196 82.348 81.999 82.25 82.371 82.766 83.746 85.16 85.109 85.283 85.742 85.761 85.421 85.548 84.735 84.608 83.97 84.296 83.75 83.127 83.344 82.457 82.8 82.42 81.873 81.77 81.798 81.671 81.386 -9999 -9999 -9999 -9999 -9999 -9999 -9999 -9999 -9999 -9999 -9999 -9999 -9999 -9999 -9999 -9999 -9999 -9999 -9999 -9999 -9999 -9999 81.506 81.464 81.391 -9999 -9999 -9999 -9999 -9999 -9999 -9999 -9999 -9999 -9999 -9999 -9999 -9999 -9999 81.65 81.529 81.612 81.625 81.556 81.632 81.578 81.668 81.643 81.695 81.612 81.696 81.632 81.648 -9999 -9999 -9999 -9999 -9999 -9999 -9999 -9999 -9999 -9999 -9999 -9999 -9999 -9999 -9999 -9999 -9999
-9999 -9999 -9999 -9999 -9999 -9999 -9999 -9999 -9999 -9999 -9999 -9999 -9999 -9999 -9999 -9999 -9999 -9999 -9999 -9999 84.4 84.383 84.32 84.314 84.315 84.341 84.338 84.289 84.221 84.343 84.183 84.172 84.099 84.151 84.032 84.051 83.982 84.059 84.149 84.117 84.042 84.02 84.001 83.872 83.896 83.806 83.79 83.729 83.642 83.738 83.585 83.51 83.41 83.393 83.403 83.354 82.797 83.309 83.245 83.302 83.134 83.434 83.515 83.697 84.85 86.381 88.093 89.469 90.317 90.151 88.592 84.504 82.842 82.611 82.588 82.597 82.514 82.511 82.596 82.504 82.439 82.493 82.488 82.339 82.272 82.293 81.926 82.285 82.313 82.195 82.21 82.183 82.315 82.142 82.427 82.397 82.58 82.62 83.362 84.071 85.02 85.538 85.569 85.074 84.543 84.992 84.904 84.878 83.739 83.587 83.356 82.339 81.784 81.761 81.756 81.783 81.538 81.403 -9999 -9999 -9999 -9999 -9999 -9999 -9999 -9999 -9999 -9999 -9999 -9999 -9999 -9999 -9999 -9999 -9999 -9999 -9999 -9999 -9999 -9999 -9999 -9999 -9999 -9999 -9999 -9999 -9999 -9999 -9999 -9999 -9999 -9999 -9999 -9999 -9999 81.588 81.636 81.724 81.648 81.587 81.603 81.641 81.631 81.714 81.743 81.662 81.724 81.791 81.685 -9999 -9999 -9999 -9999 -9999 -9999 -9999 -9999 -9999 -9999 -9999 -9999 -9999 -9999 -9999 -9999 -9999
-9999 -9999 -9999 -9999 -9999 -9999 -9999 -9999 -9999 -9999 -9999 -9999 -9999 -9999 -9999 -9999 -9999 -9999 -9999 -9999 84.494 84.372 84.442 84.449 84.406 84.323 84.29 84.242 84.199 84.266 84.205 84.085 84.096 84.109 84.098 83.995 83.99 84.083 83.934 84.006 84.06 84.004 83.997 84.044 84.004 83.858 83.767 83.792 83.735 83.745 83.635 83.488 83.556 83.477 83.465 83.403 83.414 83.371 83.258 83.319 83.346 82.898 83.309 83.407 84.482 85.932 87.753 89.428 90.263 89.997 88.302 85.399 83.228 82.561 82.617 82.195 82.582 82.477 82.436 82.498 82.414 82.607 82.424 82.417 82.316 82.411 82.229 82.321 82.187 82.209 82.145 82.213 82.37 82.111 82.354 82.366 82.318 82.328 82.304 82.642 83.592 84.424 84.937 85.369 85.295 85.162 84.95 85.302 84.824 84.488 83.331 82.188 81.989 81.821 81.779 81.688 81.621 81.674 -9999 -9999 -9999 -9999 -9999 -9999 -9999 -9999 -9999 -9999 -9999 -9999 -9999 -9999 -9999 -9999 -9999 -9999 -9999 -9999 -9999 -9999 -9999 -9999 -9999 -9999 -9999 -9999 -9999 -9999 -9999 -9999 -9999 -9999 -9999 -9999 -9999 81.705 81.576 81.59 81.695 81.694 81.708 81.644 81.651 81.601 81.662 81.787 81.648 81.624 81.687 -9999 -9999 -9999 -9999 -9999 -9999 -9999 -9999 -9999 -9999 -9999 -9999 -9999 -9999 -9999 -9999 -9999
-9999 -9999 -9999 -9999 -9999 -9999 -9999 -9999 -9999 -9999 -9999 -9999 -9999 -9999 -9999 -9999 -9999 -9999 -9999 -9999 -9999 84.449 84.417 84.362 84.397 84.252 84.159 84.246 84.171 84.168 84.139 84.115 84.023 84.022 84.13 84.187 84.113 84.091 84.049 84.131 84.094 83.991 83.979 84.02 83.968 83.832 83.668 84.096 83.759 83.7 83.672 83.584 83.622 83.498 83.551 83.469 83.463 83.407 83.233 83.269 83.363 83.149 83.29 83.523 84.5 85.732 87.316 89.055 88.828 87.727 86.654 84.009 82.812 82.374 82.584 82.565 82.541 82.495 82.523 82.525 82.459 82.239 82.378 82.329 82.343 82.395 82.367 82.267 82.415 82.203 82.288 82.403 82.284 82.361 82.348 82.339 82.385 82.175 82.408 82.286 82.408 83.298 84.305 84.638 84.641 84.998 85.604 85.765 85.237 84.799 83.328 82.618 82.483 82.417 82.742 82.584 81.724 81.694 81.629 -9999 -9999 -9999 -9999 -9999 -9999 -9999 -9999 -9999 -9999 -9999 -9999 -9999 -9999 -9999 -9999 -9999 -9999 -9999 -9999 -9999 -9999 -9999 -9999 -9999 -9999 -9999 -9999 -9999 -9999 -9999 -9999 -9999 -9999 -9999 -9999 81.66 81.677 81.671 81.645 81.635 81.669 81.705 81.742 81.68 81.647 81.703 81.67 81.656 81.599 -9999 -9999 -9999 -9999 -9999 -9999 -9999 -9999 -9999 -9999 -9999 -9999 -9999 -9999 -9999 -9999 -9999
-9999 -9999 -9999 -9999 -9999 -9999 -9999 -9999 -9999 -9999 -9999 -9999 -9999 -9999 -9999 -9999 -9999 -9999 -9999 -9999 84.384 84.408 84.376 84.354 84.318 84.323 84.232 84.165 84.198 84.107 84.155 84.139 84.084 84.217 84.106 84.128 84.106 84.126 84.074 84.158 84.083 83.92 84.089 84.024 84.031 83.926 83.972 83.845 83.8 83.805 83.658 83.609 83.625 83.611 83.543 83.512 83.505 83.385 83.511 83.291 83.406 83.286 83.34 83.65 84.534 85.467 86.587 87.177 84.74 85.536 84.803 82.525 82.686 82.688 82.579 82.636 82.611 82.561 82.703 82.292 82.446 82.393 82.41 82.354 82.501 82.398 82.232 82.415 82.081 82.421 82.366 82.364 82.243 82.328 82.352 82.343 82.36 82.277 82.098 81.997 82.275 82.308 82.632 83.185 83.977 84.575 84.224 84.235 84.909 84.252 83.481 82.743 83.215 83.805 83.932 82.524 81.82 81.78 81.757 81.65 81.4 -9999 -9999 -9999 -9999 -9999 -9999 -9999 -9999 -9999 -9999 -9999 -9999 -9999 -9999 -9999 -9999 -9999 -9999 -9999 -9999 -9999 -9999 -9999 -9999 -9999 -9999 -9999 81.387 81.569 81.564 81.693 -9999 -9999 81.387 81.649 81.63 81.709 81.633 81.63 81.666 81.667 81.676 81.8 81.785 81.849 81.736 81.786 81.753 -9999 -9999 -9999 -9999 -9999 -9999 -9999 -9999 -9999 -9999 -9999 -9999 -9999 -9999 -9999 -9999 -9999
-9999 -9999 -9999 -9999 -9999 -9999 -9999 -9999 -9999 -9999 -9999 -9999 -9999 -9999 -9999 -9999 -9999 -9999 -9999 -9999 84.472 84.399 84.366 84.429 84.369 84.579 85.135 85.17 84.601 84.076 84.111 84.138 84.233 84.181 84.225 84.068 84.021 84.155 84.141 84.13 84.06 84.069 84.045 83.98 84.02 83.958 83.918 83.929 83.812 83.697 83.84 83.918 83.799 83.637 83.639 83.426 83.44 83.485 83.377 82.85 83.313 83.275 83.222 83.252 83.323 83.803 84.707 84.457 83.849 83.115 82.651 82.748 82.717 82.607 82.641 82.571 82.241 82.516 82.44 82.468 82.465 82.564 82.39 82.372 82.296 82.356 82.298 82.242 82.319 82.33 82.293 82.3 82.256 82.286 82.326 82.014 82.381 82.265 82.29 82.264 82.341 82.263 82.275 82.3 82.677 82.748 82.652 83.072 84.017 84.293 83.923 83.292 83.247 84.119 84.358 82.619 82.542 81.783 81.836 81.893 81.66 -9999 -9999 -9999 -9999 -9999 -9999 -9999 -9999 -9999 -9999 -9999 -9999 -9999 -9999 -9999 -9999 -9999 -9999 -9999 -9999 -9999 -9999 -9999 -9999 -9999 -9999 -9999 81.457 81.698 81.638 81.67 81.737 81.384 81.55 81.575 81.695 81.606 81.684 81.664 81.748 81.666 81.632 81.748 81.793 81.888 81.875 81.824 81.915 81.823 -9999 -9999 -9999 -9999 -9999 -9999 -9999 -9999 -9999 -9999 -9999 -9999 -9999 -9999 -9999 -9999
-9999 -9999 -9999 -9999 -9999 -9999 -9999 -9999 -9999 -9999 -9999 -9999 -9999 -9999 -9999 -9999 -9999 -9999 -9999 -9999 -9999 84.386 84.382 84.371 84.426 84.301 84.32 84.894 84.794 84.256 84.151 84.178 84.225 84.186 84.205 84.183 84.109 84.163 84.145 84.121 84.102 84.086 84.06 83.987 83.9 83.992 83.928 83.892 83.897 83.893 83.816 83.771 83.723 83.684 83.615 83.616 83.539 83.46 83.415 83.402 83.228 83.293 83.254 83.218 82.818 83.256 83.548 83.473 82.783 82.946 82.781 82.839 82.764 82.61 82.49 82.558 82.581 82.572 82.639 82.436 82.537 82.439 82.451 82.227 82.4 82.349 82.345 82.32 82.34 82.315 82.376 82.286 82.339 82.342 82.356 82.318 82.214 82.212 82.271 82.304 82.352 82.362 82.228 82.117 82.257 82.31 82.39 82.431 82.519 83.095 83.943 84.32 84.495 83.903 83.027 82.348 82.425 82.423 81.968 81.933 81.826 81.792 -9999 -9999 -9999 -9999 -9999 -9999 -9999 -9999 -9999 -9999 -9999 -9999 -9999 -9999 -9999 -9999 -9999 -9999 -9999 -9999 -9999 -9999 -9999 -9999 -9999 -9999 -9999 81.733 81.724 81.739 81.75 81.65 81.667 81.859 81.676 81.675 81.629 81.802 81.747 81.723 81.786 81.694 81.831 81.795 81.854 81.858 82.014 82.024 -9999 -9999 -9999 -9999 -9999 -9999 -9999 -9999 -9999 -9999 -9999 -9999 -9999 -9999 -9999 -9999
-9999 -9999 -9999 -9999 -9999 -9999 -9999 -9999 -9999 -9999 -9999 -9999 -9999 -9999 -9999 -9999 -9999 -9999 -9999 -9999 -9999 84.457 84.393 84.406 84.378 84.362 84.328 84.296 84.364 84.219 84.202 84.161 84.208 84.178 84.165 84.157 84.155 84.109 84.047 84.108 84.08 84.105 84.031 83.995 83.972 83.988 83.92 83.893 83.923 83.872 83.674 83.757 83.746 83.671 83.7 83.662 83.554 83.525 83.465 83.494 83.372 83.294 83.252 83.268 83.325 83.005 83.556 83.041 82.834 82.759 82.514 82.343 82.66 82.634 82.637 82.65 82.591 82.667 82.64 82.513 82.315 82.52 82.387 82.493 82.566 82.428 82.325 82.421 82.286 82.208 82.434 82.45 82.398 82.343 82.434 82.367 82.295 82.233 82.147 82.286 82.215 82.218 82.158 82.224 82.213 82.019 82.153 82.799 82.241 82.322 82.563 83.03 83.914 83.964 83.332 82.234 82.244 82.075 81.923 81.882 81.895 81.936 81.794 -9999 -9999 -9999 -9999 -9999 -9999 -9999 -9999 -9999 -9999 -9999 -9999 -9999 -9999 -9999 -9999 -9999 -9999 -9999 -9999 -9999 -9999 -9999 -9999 -9999 -9999 -9999 -9999 81.593 81.63 81.665 81.561 81.647 81.627 81.773 81.686 81.703 81.82 81.77 81.829 81.931 81.941 81.79 81.918 81.99 82.038 81.926 -9999 -9999 -9999 -9999 -9999 -9999 -9999 -9999 -9999 -9999 -9999 -9999 -9999 -9999 -9999 -9999
-9999 -9999 -9999 -9999 -9999 -9999 -9999 -9999 -9999 -9999 -9999 -9999 -9999 -9999 -9999 -9999 -9999 -9999 -9999 -9999 -9999 84.451 84.476 84.4 84.364 84.35 84.201 84.38 84.282 84.337 84.229 84.122 84.236 84.117 84.185 84.15 84.091 84.134 84.068 84.112 84.053 84.119 84.053 84.021 84.04 83.895 83.826 83.873 83.888 83.839 83.803 83.829 83.755 83.738 83.727 83.628 83.631 83.496 83.45 83.424 83.387 83.432 83.331 83.291 83.239 83.254 83.671 82.841 82.477 82.758 82.675 82.744 82.707 82.812 82.655 82.59 82.682 82.537 82.46 82.566 82.459 82.466 82.418 82.394 82.372 82.387 82.35 82.111 82.38 82.358 82.304 82.354 82.422 82.392 82.371 82.338 82.06 82.34 82.435 82.378 82.255 82.257 82.21 82.117 82.2 82.149 81.974 82.173 82.184 82.121 82.229 82.187 83.112 83.996 84.129 82.408 82.028 81.968 81.862 81.985 81.973 81.716 81.691 81.804 81.474 81.747 81.74 81.402 -9999 -9999 -9999 -9999 -9999 -9999 -9999 -9999 -9999 -9999 -9999 -9999 -9999 -9999 -9999 -9999 -9999 -9999 -9999 -9999 -9999 -9999 -9999 -9999 81.496 81.649 81.679 81.639 81.643 81.745 81.624 81.855 81.894 82.044 81.945 81.943 81.885 81.981 81.967 82.011 82.008 81.953 81.997 -9999 -9999 -9999 -9999 -9999 -9999 -9999 -9999 -9999 -9999 -9999 -9999 -9999 -9999 -9999
-9999 -9999 -9999 -9999 -9999 -9999 -9999 -9999 -9999 -9999 -9999 -9999 -9999 -9999 -9999 -9999 -9999 -9999 -9999 -9999 -9999 -9999 84.434 84.363 84.38 84.329 84.343 84.388 84.341 84.327 84.258 84.223 84.184 84.794 85.078 84.088 84.07 84.111 84.141 84.15 84.024 83.996 84.04 84.014 84.028 83.954 83.971 83.911 83.942 83.914 83.843 83.746 83.745 83.772 83.641 83.219 83.323 83.793 83.51 83.424 83.458 83.279 83.065 83.193 83.246 82.905 82.442 82.992 82.795 82.804 82.742 82.73 82.75 82.687 82.749 82.723 82.602 82.617 82.571 82.49 82.458 82.402 82.425 82.489 82.317 82.457 82.411 82.492 82.404 82.458 82.408 82.347 82.386 82.332 82.151 82.404 82.351 82.308 82.348 82.328 82.181 82.209 82.303 82.268 82.021 82.319 82.115 82.197 81.98 82.161 82.058 82.052 82.162 82.133 82.401 81.925 81.937 81.947 82.032 82.039 81.952 81.946 81.899 81.773 81.722 81.941 81.781 81.864 81.69 81.388 -9999 -9999 -9999 -9999 -9999 -9999 -9999 -9999 -9999 -9999 -9999 -9999 -9999 -9999 -9999 -9999 -9999 -9999 -9999 -9999 -9999 -9999 -9999 81.421 81.651 81.683 81.61 81.727 81.653 81.662 81.916 81.929 82.023 81.997 81.912 82.017 81.984 82.031 82.023 82.055 81.959 -9999 -9999 -9999 -9999 -9999 -9999 -9999 -9999 -9999 -9999 -9999 -9999 -9999 -9999 -9999
-9999 -9999 -9999 -9999 -9999 -9999 -9999 -9999 -9999 -9999 -9999 -9999 -9999 -9999 -9999 -9999 -9999 -9999 -9999 -9999 -9999 -9999 84.376 84.31 84.407 84.357 84.303 84.348 84.206 84.251 84.268 84.222 84.208 84.143 84.204 84.134 84.095 84.121 84.09 84.103 84.036 84.067 84.022 84.033 83.983 83.926 83.916 84.021 83.929 83.804 83.786 83.968 83.817 83.486 83.609 83.536 83.517 83.533 83.423 83.524 83.352 83.276 83.301 82.986 83.124 83.572 82.968 83.09 82.801 82.742 82.745 82.755 82.784 82.578 82.835 82.687 82.652 82.515 82.639 82.547 82.494 82.581 82.098 82.419 82.423 82.438 82.483 82.374 82.288 82.055 82.497 82.367 82.037 82.375 82.345 82.434 82.428 82.341 82.302 82.379 82.184 82.255 82.012 82.198 82.169 82.122 82.222 82.056 82.197 82.026 81.985 82.099 82.031 82.076 81.949 82.048 81.983 82.029 81.974 82.002 81.987 81.979 81.895 81.877 81.834 81.861 81.649 81.898 81.836 81.613 81.451 81.391 -9999 -9999 -9999 -9999 -9999 -9999 -9999 -9999 -9999 -9999 -9999 -9999 -9999 -9999 -9999 -9999 -9999 -9999 -9999 -9999 -9999 81.387 81.891 81.722 81.592 81.681 81.668 81.847 81.923 82.04 82.061 81.957 82.064 82.068 82.026 82.046 82.101 82.123 81.866 -9999 -9999 -9999 -9999 -9999 -9999 -9999 -9999 -9999 -9999 -9999 -9999 -9999 -9999 -9999
-9999 -9999 -9999 -9999 -9999 -9999 -9999 -9999 -9999 -9999 -9999 -9999 -9999 -9999 -9999 -9999 -9999 -9999 -9999 -9999 -9999 -9999 84.365 84.313 84.326 84.373 84.322 84.284 84.257 84.229 84.3 84.33 84.306 84.207 84.167 84.097 84.1 84.078 84.136 84.071 84.047 84.035 84.011 84.033 83.987 83.828 83.889 84.029 83.909 83.88 83.838 83.779 83.809 83.697 83.615 83.635 83.613 83.633 83.01 83.208 83.435 83.08 83.327 83.37 83.328 83.697 83.292 82.779 82.878 82.774 82.741 82.778 82.657 82.67 82.66 82.569 82.641 82.604 82.535 82.231 82.503 82.595 82.547 82.484 82.479 82.545 82.265 82.388 82.353 82.342 82.341 82.422 82.404 82.464 82.474 82.389 82.441 82.414 82.266 82.358 82.385 82.257 82.237 82.294 82.253 82.325 82.273 82.168 82.176 82.215 82.12 81.904 81.984 81.982 82.03 82.035 81.96 82.008 82.029 81.95 81.95 81.93 81.867 81.884 81.924 81.861 82.028 81.859 81.713 81.812 81.748 81.444 81.496 81.387 -9999 -9999 -9999 -9999 -9999 -9999 -9999 -9999 -9999 -9999 -9999 -9999 -9999 -9999 -9999 -9999 -9999 -9999 -9999 81.387 81.544 81.691 81.667 81.648 81.828 81.899 82.073 81.999 81.976 81.912 82.014 82.078 82.053 81.912 82.079 82.129 82.011 -9999 81.992 -9999 -9999 -9999 -9999 -9999 -9999 -9999 -9999 -9999 -9999 -9999 -9999 -9999
-9999 -9999 -9999 -9999 -9999 -9999 -9999 -9999 -9999 -9999 -9999 -9999 -9999 -9999 -9999 -9999 -9999 -9999 -9999 -9999 -9999 -9999 -9999 84.384 84.29 84.29 84.261 84.308 84.29 84.223 84.223 84.236 84.259 84.164 84.209 84.19 84.099 84.149 84.121 84.091 83.956 84.09 84.037 84.022 84.016 84.042 83.924 83.939 83.927 83.829 83.881 83.846 83.798 83.168 83.691 83.614 83.642 83.55 83.174 83.256 83.414 84.156 83.574 83.824 83.968 83.162 83.36 82.993 82.748 82.832 82.775 82.448 82.663 82.648 82.668 82.582 82.504 82.762 82.556 82.626 82.655 82.638 82.657 82.148 82.61 82.415 82.487 82.49 82.357 82.381 82.401 82.447 82.336 82.414 82.508 82.379 82.462 82.252 82.248 82.334 82.404 82.344 82.349 82.358 82.271 82.233 82.225 82.28 82.149 82.31 82.162 82.095 82.081 82.077 82.03 82.054 82.066 81.985 81.953 81.956 81.889 81.918 81.843 81.778 81.856 82.075 82.022 81.903 81.909 81.849 81.812 81.931 82.463 82.941 81.474 -9999 -9999 -9999 -9999 -9999 -9999 -9999 -9999 -9999 -9999 -9999 -9999 -9999 -9999 -9999 -9999 -9999 -9999 81.387 81.794 81.689 81.692 81.8 81.982 82.05 81.987 82.011 82.067 82.1 81.987 82.043 81.971 81.988 82.021 82.053 82.057 81.942 -9999 -9999 -9999 -9999 -9999 -9999 -9999 -9999 -9999 -9999 -9999 -9999 -9999 -9999
-9999 -9999 -9999 -9999 -9999 -9999 -9999 -9999 -9999 -9999 -9999 -9999 -9999 -9999 -9999 -9999 -9999 -9999 -9999 -9999 -9999 -9999 84.317 84.373 84.321 84.314 84.278 84.299 84.283 84.23 84.227 84.218 84.247 84.191 84.172 84.097 84.142 84.155 84.09 84.097 84.132 84.114 84.017 84.016 84 83.96 83.93 83.859 83.38 83.852 83.773 83.719 83.654 83.672 83.851 83.641 83.565 83.616 83.615 83.129 83.535 84.053 83.624 83.585 83.823 84.251 83.682 83.169 82.903 83.059 83.52 83.185 82.808 82.831 82.547 82.634 82.624 82.675 82.634 82.699 82.249 82.729 82.628 82.606 82.726 82.258 82.545 82.599 82.535 82.546 82.513 82.484 82.422 82.363 82.465 82.564 82.598 82.983 82.579 82.357 82.683 82.282 82.222 82.264 82.245 82.325 82.302 82.355 82.194 82.035 82.159 82.082 82.129 82.072 82.03 82.075 82.099 82.038 82.023 82.037 81.999 82.02 81.853 81.82 81.969 81.909 81.902 81.905 81.925 81.77 81.64 81.779 82.524 83.976 83.203 81.835 81.387 -9999 -9999 -9999 -9999 -9999 -9999 -9999 -9999 -9999 -9999 -9999 -9999 -9999 -9999 -9999 81.387 81.387 81.835 81.782 81.791 81.855 81.893 81.885 81.958 82.055 82.079 82.106 82.123 82.077 81.995 81.929 82.167 82.059 82.422 82.213 -9999 -9999 -9999 -9999 -9999 -9999 -9999 -9999 -9999 -9999 -9999 -9999 -9999 -9999
-9999 -9999 -9999 -9999 -9999 -9999 -9999 -9999 -9999 -9999 -9999 -9999 -9999 -9999 -9999 -9999 -9999 -9999 -9999 -9999 -9999 84.313 84.382 84.289 84.311 84.317 84.277 84.318 84.293 84.256 84.203 84.198 84.218 84.169 84.155 84.125 84.12 84.062 84.1 84.137 84.13 84.071 84.006 84.041 84.33 84.354 83.844 83.844 84.128 83.846 83.742 83.769 83.662 83.663 83.67 83.72 83.033 83.638 83.744 83.414 83.541 83.455 83.677 83.706 83.644 84.192 84.64 83.14 82.992 83.139 84.898 84.281 82.874 82.672 82.935 82.661 82.727 82.615 82.668 82.657 82.643 82.642 82.609 82.57 82.711 82.624 82.579 82.489 82.645 82.51 82.57 82.478 82.115 82.428 82.515 82.651 83.762 85.045 85.01 83.705 82.923 82.554 82.445 82.052 82.251 82.24 82.25 82.269 82.244 82.261 82.143 81.982 82.157 82.112 82.192 82.049 82.022 82.052 81.948 82.029 81.934 81.955 81.976 81.978 81.942 81.884 81.833 81.872 81.879 81.988 81.833 81.842 82.226 82.374 82.906 82.182 81.535 81.484 81.388 -9999 -9999 -9999 -9999 -9999 81.387 -9999 -9999 -9999 -9999 -9999 -9999 81.387 81.383 81.518 81.663 81.739 81.839 81.764 81.928 82.01 82.073 82.101 82.08 82.028 81.974 82.052 82.015 82.111 81.916 82.058 82.134 82.814 83.883 -9999 -9999 -9999 -9999 -9999 -9999 -9999 -9999 -9999 -9999 -9999 -9999 -9999
-9999 -9999 -9999 -9999 -9999 -9999 -9999 -9999 -9999 -9999 -9999 -9999 -9999 -9999 -9999 -9999 -9999 -9999 -9999 -9999 -9999 84.354 84.425 84.404 84.316 84.334 84.33 84.334 84.234 84.274 84.129 84.235 84.215 84.201 84.11 84.145 84.105 84.041 84.09 84.073 84.107 84.074 84.767 85.285 85.485 84.047 83.778 83.836 83.694 83.801 83.756 83.411 83.798 83.717 83.678 83.569 83.638 83.539 83.483 83.586 83.59 83.652 85.356 85.275 83.658 84.394 85.038 83.916 83.631 83.478 83.604 83.461 83.034 82.52 82.684 82.389 82.715 82.705 82.723 82.681 82.6 82.403 82.729 82.734 82.758 82.733 82.684 82.66 82.468 82.64 82.494 82.547 82.444 82.477 82.627 83.114 84.505 86.352 86.34 85.818 85.599 84.528 83.249 82.71 82.542 82.04 82.241 82.224 82.229 82.236 82.207 82.147 82.115 82.178 82.018 81.976 82.043 81.99 82.027 81.978 81.936 81.955 82.045 81.92 81.913 81.892 81.823 82.103 81.778 81.726 81.83 81.857 81.677 81.935 81.82 81.631 81.612 81.67 81.663 81.75 -9999 -9999 -9999 -9999 81.453 81.669 -9999 -9999 -9999 81.387 81.386 81.653 81.647 81.678 81.82 81.843 81.836 81.939 81.798 81.966 82.059 82.076 81.987 81.983 82.004 82.102 82.007 82.124 81.946 82.292 82.331 82.862 83.194 83.904 84.467 -9999 -9999 -9999 -9999 -9999 -9999 -9999 -9999 -9999 -9999 -9999
-9999 -9999 -9999 -9999 -9999 -9999 -9999 -9999 -9999 -9999 -9999 -9999 -9999 -9999 -9999 -9999 -9999 -9999 -9999 -9999 84.416 84.413 84.413 84.39 84.335 84.279 84.43 84.296 84.261 84.287 84.193 84.136 84.168 84.23 84.112 84.122 84.1 84.096 84.062 84.092 84.051 84.116 84.069 84.033 84.178 83.816 83.417 83.892 83.75 83.739 83.755 83.685 83.708 83.628 83.708 83.675 83.543 83.583 83.423 83.616 83.632 83.577 84.218 84.179 83.768 84.383 84.711 84.122 83.785 83.442 83.64 83.419 83.019 82.819 84.67 84.944 82.617 82.648 82.721 82.423 82.716 82.717 82.736 82.778 82.732 82.798 82.62 82.194 82.608 82.766 82.634 82.682 82.61 82.731 82.805 83.456 85.306 86.923 87.207 87.092 87.124 86.202 84.332 84.478 84.289 82.662 82.32 82.242 82.207 82.216 82.279 82.287 82.197 82.148 82.138 81.99 81.993 81.975 82.077 82.005 81.933 81.905 81.994 81.939 81.997 81.872 81.691 81.632 81.837 81.659 81.802 81.74 81.757 81.842 81.783 81.934 81.749 81.695 81.736 81.747 81.767 81.389 81.387 -9999 -9999 81.558 -9999 -9999 81.387 81.438 81.885 81.789 81.776 81.758 81.786 81.791 81.848 81.881 81.906 81.921 82.129 81.945 82.094 82.217 82.153 82.132 82.162 82.298 82.174 82.218 82.34 82.648 83.176 84.282 84.738 83.259 83.558 83.568 84.492 83.92 -9999 -9999 -9999 -9999 -9999 -9999
-9999 -9999 -9999 -9999 -9999 -9999 -9999 -9999 -9999 -9999 -9999 -9999 -9999 -9999 -9999 -9999 -9999 -9999 -9999 -9999 84.359 84.346 84.42 84.349 84.343 84.5 85.207 87.217 88.737 87.154 84.425 84.159 84.116 84.096 83.954 84.06 84.047 84.082 84.042 84.047 84.038 83.701 84.008 83.968 83.871 83.856 83.839 83.793 83.766 83.814 83.76 83.805 83.629 83.25 83.643 83.643 83.661 83.654 83.582 83.693 83.625 83.672 84.507 85.076 84.562 84.369 84.179 83.387 83.745 84.289 84.07 82.87 82.746 82.878 83.182 83.788 83.252 82.585 82.758 82.793 82.753 82.791 82.785 82.823 82.668 82.579 82.726 82.772 82.778 82.708 82.836 82.558 82.644 82.591 82.703 84.066 85.937 87.176 86.852 87.053 87.142 86.265 84.944 84.544 83.923 83.034 82.736 82.342 82.433 82.229 82.2 82.197 82.076 82.214 81.991 82.141 82.053 82.086 81.996 81.863 81.992 81.897 81.818 81.892 81.703 81.851 81.729 81.759 81.827 81.794 82.009 81.652 81.666 81.713 81.751 81.847 81.848 82.026 82.036 81.713 81.679 81.761 81.498 81.384 -9999 81.435 81.38 81.387 81.49 81.78 81.788 81.856 81.841 81.791 81.849 81.907 81.798 81.799 81.91 81.979 82.042 81.967 82.008 82.083 82.086 82.082 82.177 82.149 82.153 82.196 82.147 82.263 83.225 83.922 83.684 83.588 83.594 84.722 86.344 -9999 -9999 -9999 -9999 -9999 -9999 -9999
-9999 -9999 -9999 -9999 -9999 -9999 -9999 -9999 -9999 -9999 -9999 -9999 -9999 -9999 -9999 -9999 -9999 -9999 -9999 -9999 84.435 84.423 84.43 84.386 84.485 85.489 86.771 86.75 87.84 86.719 85.602 84.514 84.313 84.038 85.128 84.093 83.771 83.728 83.948 83.917 83.892 83.873 83.853 83.805 83.819 83.891 83.897 83.737 83.406 83.644 83.812 83.735 83.675 83.647 83.656 83.6 83.608 83.539 83.727 83.587 83.792 84.059 84.782 87.039 87.032 85.108 83.981 83.399 83.343 83.117 83.409 83.936 83.022 82.851 82.887 82.729 82.805 82.901 82.956 82.85 82.929 83.453 82.839 82.839 82.812 82.912 82.727 82.77 82.331 82.743 82.742 82.731 82.624 82.388 82.678 83.154 85.622 87.828 88.066 88.17 87.858 87.034 85.947 84.627 84.036 83.832 83.475 82.653 82.295 82.466 82.257 82.106 81.967 81.954 82.118 81.994 82.231 82.489 82.469 82.234 82.05 82.237 81.665 81.906 81.799 81.722 81.909 81.881 81.757 81.902 81.766 81.964 81.614 81.641 81.86 81.831 81.749 81.802 81.902 81.922 81.766 81.627 81.657 81.429 -9999 81.466 81.478 81.506 81.755 81.895 81.863 81.924 81.857 81.801 81.825 81.838 81.907 81.857 81.951 81.916 82.046 82.005 82.029 82.053 82.12 82.178 82.262 82.13 82.11 82.218 82.071 82.518 84.257 85.116 85.165 84.327 84.432 85.899 87.102 -9999 -9999 -9999 -9999 -9999 -9999 -9999
-9999 -9999 -9999 -9999 -9999 -9999 -9999 -9999 -9999 -9999 -9999 -9999 -9999 -9999 -9999 -9999 -9999 -9999 -9999 -9999 84.503 84.546 84.784 86.647 85.709 86.524 86.806 86.062 85.916 85.989 86.452 86.081 85.702 85.394 85.137 87.009 84.257 83.732 83.952 83.976 83.795 83.849 83.922 83.613 84.041 83.967 83.779 83.775 83.814 83.796 83.718 83.738 83.717 83.696 83.726 83.699 83.162 83.744 83.703 83.74 84.207 84.458 84.504 84.756 85.264 84.84 84.476 83.582 83.299 83.408 83.328 83.276 83.813 82.907 82.844 82.837 82.848 82.845 83.701 82.911 82.928 83.59 82.766 82.868 83.011 82.616 82.778 82.752 82.837 82.801 82.681 82.588 82.459 82.663 82.717 82.829 84.339 87.688 88.953 89.109 88.526 88.681 87.618 85.627 84.941 84.507 83.898 83.102 82.557 82.355 82.322 82.428 82.282 82.468 82.687 82.841 83.812 84.481 84.656 84.439 83.661 82.758 82.071 81.926 81.919 81.89 81.869 81.937 81.813 82.17 81.876 81.898 81.724 81.782 81.669 81.822 81.721 81.785 82.039 82.283 82.133 81.693 81.631 81.761 -9999 -9999 -9999 81.64 81.715 81.947 81.841 81.835 81.815 81.872 81.928 81.941 81.93 81.887 81.986 81.991 81.932 82.001 81.969 82.015 82.033 82.024 82.157 82.198 82.042 82.021 82.467 84.536 86.143 85.413 85.288 84.835 85.587 86.153 86.34 -9999 -9999 -9999 -9999 -9999 -9999 -9999
-9999 -9999 -9999 -9999 -9999 -9999 -9999 -9999 -9999 -9999 -9999 -9999 -9999 -9999 -9999 -9999 -9999 -9999 -9999 84.513 84.397 84.451 85.135 85.394 85.523 85.949 85.361 85.719 86.825 87.128 86.287 87.733 87.128 87.381 87.35 89.752 88.766 83.959 84.047 83.963 83.944 83.795 83.822 83.809 83.914 83.842 83.893 83.886 83.842 83.742 83.846 83.423 83.662 83.752 83.658 83.646 83.762 83.646 83.7 83.794 84.26 85.195 85.79 85.24 84.868 84.613 85.023 84.621 83.653 83.122 83.178 83.041 82.832 83.081 83.08 83.043 82.827 82.952 82.546 82.852 82.99 82.899 82.748 82.722 82.965 82.836 82.652 82.723 82.688 82.345 82.791 82.938 82.915 83.021 82.935 82.822 83.108 84.737 86.696 88.218 88.001 87.234 87.071 86.793 86.372 85.749 84.101 83.649 83.148 82.719 82.631 82.962 83.007 84.232 84.71 84.498 83.828 84.385 84.264 84.14 83.728 84.709 82.509 82.534 82.102 81.899 81.963 82.303 82.034 82.363 82.342 81.864 81.853 81.864 82.165 81.72 81.817 81.757 81.844 81.953 82.136 81.726 81.693 81.656 -9999 -9999 -9999 81.613 81.706 81.766 81.81 81.875 81.912 81.998 82.086 82.495 82.468 82.09 81.918 81.918 81.934 81.993 81.978 82.003 -9999 -9999 82.524 82.224 82.258 82.227 83.75 86.106 86.98 86.007 85.893 86.313 85.823 86.014 86.094 86.235 -9999 -9999 -9999 -9999 -9999 -9999
-9999 -9999 -9999 -9999 -9999 -9999 -9999 -9999 -9999 -9999 -9999 -9999 -9999 -9999 -9999 -9999 -9999 -9999 -9999 84.541 84.537 84.618 84.438 84.567 84.731 85.291 85.376 86.487 86.439 86.764 86.298 86.829 87.221 88.81 89.892 90.733 90.069 86.239 84.468 83.968 83.752 83.886 83.901 83.912 83.87 83.881 83.553 83.76 83.831 83.714 83.691 83.73 83.785 83.688 83.722 83.751 83.746 83.762 83.533 83.671 84.589 85.962 86.826 85.81 85.348 85.771 84.288 84.579 83.822 83.22 83.132 83.215 83.234 83.749 83.636 84.777 82.95 82.752 82.644 82.825 82.86 82.933 82.879 82.961 82.66 82.709 82.497 82.565 82.837 82.917 82.99 83.056 83.09 82.804 82.989 83.014 83.069 84.207 84.846 85.587 86.255 88.007 88.347 87.066 86.164 85.244 84.853 84.199 83.965 83.534 83.63 83.544 84.194 85.168 85.468 84.988 84.289 84.744 85.037 85.684 84.806 83.422 83.282 82.664 82.152 82.333 82.51 82.419 82.377 82.465 82.288 81.927 82.004 81.925 81.844 81.76 81.846 82.036 81.797 81.8 81.816 81.733 81.84 81.76 -9999 -9999 -9999 -9999 81.785 81.731 81.927 82.02 81.945 82.005 -9999 -9999 -9999 -9999 -9999 -9999 -9999 -9999 -9999 -9999 -9999 -9999 -9999 83.883 83.129 82.821 84.579 -9999 87.557 87.327 87.223 87.353 87.221 86.212 86.207 86.4 87.636 -9999 87.439 88.531 89.991 91.888
-9999 -9999 -9999 -9999 -9999 -9999 -9999 -9999 -9999 -9999 -9999 -9999 -9999 -9999 -9999 -9999 -9999 -9999 84.477 84.531 84.52 84.515 84.503 84.542 84.73 84.798 85.579 86.868 86.987 86.566 86.62 86.793 87.286 89.111 90.722 88.249 88.176 87.322 86.049 85.728 84.115 83.948 83.787 83.862 83.936 83.863 83.893 83.727 83.823 83.766 83.776 83.783 83.755 83.931 83.459 83.895 83.971 86.505 83.735 83.631 83.899 84.9 85.78 85.551 85.428 85.996 84.646 83.658 83.823 83.396 83.228 83.584 84.189 84.398 84.726 84.329 83.225 82.91 82.907 82.899 83.931 84.479 84.262 83.462 83.349 83.324 84.07 84.472 83.16 83.102 83.075 83.143 83.074 82.965 82.609 82.926 83.004 83.78 84.117 84 84.306 85.383 87.487 87.378 85.963 85.631 85.425 86.005 85.181 84.942 84.99 85.2 85.384 85.912 86.668 86.371 85.747 84.923 85.476 86.208 85.137 83.342 83.423 83.081 82.692 82.707 83.895 83.255 82.94 83.019 83.056 82.909 82.451 81.922 81.864 81.888 81.795 81.81 81.821 81.857 81.664 81.968 81.837 -9999 -9999 -9999 -9999 -9999 -9999 -9999 81.78 81.9 81.931 -9999 -9999 -9999 -9999 -9999 -9999 -9999 -9999 -9999 -9999 -9999 -9999 -9999 -9999 85.696 84.651 83.848 -9999 -9999 -9999 -9999 -9999 -9999 87.355 86.296 86.288 86.963 87.885 88.361 88.719 89.717 91.363 -9999
-9999 -9999 -9999 -9999 -9999 -9999 -9999 -9999 -9999 -9999 -9999 -9999 -9999 -9999 -9999 -9999 -9999 -9999 84.586 84.557 84.536 84.578 84.725 85.032 84.645 85.158 85.144 85.775 87.245 87.211 86.928 86.93 87.029 87.75 88.401 88.177 88.18 88.202 87.225 86.444 85.241 84.074 83.872 83.776 83.912 83.951 83.878 83.776 83.77 83.459 83.851 83.856 83.959 83.963 83.846 83.893 83.855 83.881 83.83 83.802 83.764 84.03 84.145 84.224 84.465 84.429 84.049 84.228 84.281 84.36 84.445 84.642 84.041 85.159 86.489 84.346 84.624 83.685 83.252 83.568 84.121 84.845 84.989 85.069 85.436 86.891 85.936 84.772 83.869 84.619 83.067 83.075 83.038 83.274 82.63 83.26 83.133 84.018 83.846 83.322 84.038 84.984 85.96 85.523 85.506 85.565 86.13 85.743 85.696 85.041 85.615 85.728 86.09 87.035 87.273 87.338 86.989 85.802 84.916 84.544 83.958 83.757 83.952 83.519 83.906 83.84 83.775 83.986 85.021 83.772 83.272 83.269 83.21 82.775 82.252 81.907 82.366 81.906 81.865 81.927 82.029 81.877 81.888 -9999 -9999 -9999 -9999 -9999 -9999 -9999 -9999 -9999 81.865 -9999 -9999 -9999 -9999 -9999 -9999 -9999 -9999 -9999 -9999 -9999 -9999 -9999 -9999 85.546 -9999 -9999 -9999 -9999 -9999 -9999 -9999 -9999 -9999 -9999 -9999 -9999 -9999 -9999 -9999 -9999 -9999 -9999
-9999 -9999 -9999 -9999 -9999 -9999 -9999 -9999 -9999 -9999 -9999 -9999 -9999 -9999 -9999 -9999 -9999 84.554 84.529 84.576 84.469 85.031 86.044 86.077 85.018 85.211 84.916 84.966 85.287 85.742 86.551 86.033 85.722 85.936 86.139 85.712 86.286 87.314 87.139 85.62 85.758 85.07 84.307 83.883 83.68 83.97 83.822 83.796 83.902 83.846 83.804 83.727 84.032 83.871 83.85 83.851 83.896 83.813 83.855 83.822 83.859 83.896 83.878 84.212 85.905 84.383 84.805 85.955 85.176 83.905 83.991 83.975 84.001 84.587 85.836 83.908 83.666 83.405 83.834 84.389 85.568 85.596 85.73 87.017 89.865 88.158 86.992 85.62 85.126 84.888 83.329 83.132 83.031 83.216 82.779 83.205 83.205 83.22 83.505 83.198 84.404 85.898 85.087 84.737 84.6 85.07 85.674 86.22 86.235 85.505 85.137 85.541 85.669 85.604 85.87 86.327 86.852 86.08 85.395 84.782 84.629 84.41 84.15 84.069 84.583 84.112 84.174 84.361 84.271 84.042 83.497 83.276 83.674 82.414 82.209 82.152 82.18 82.009 81.819 82.02 81.861 81.816 81.902 -9999 -9999 -9999 -9999 -9999 -9999 -9999 -9999 -9999 -9999 -9999 -9999 -9999 -9999 -9999 -9999 -9999 -9999 -9999 -9999 -9999 -9999 -9999 -9999 85.909 84.296 -9999 -9999 -9999 -9999 -9999 -9999 -9999 -9999 -9999 -9999 -9999 -9999 -9999 -9999 -9999 -9999 -9999
-9999 -9999 -9999 -9999 -9999 -9999 -9999 -9999 -9999 -9999 -9999 -9999 -9999 -9999 -9999 -9999 84.614 84.589 84.485 84.605 84.514 84.825 85.354 85.724 85.47 85.663 85.186 85.155 85.198 85.54 86.977 85.48 85.237 85.421 86.715 85.357 85.097 84.983 85.104 85.385 85.047 84.37 84.015 83.913 83.995 83.905 83.821 83.904 83.963 83.97 83.958 83.92 83.951 83.914 83.902 83.924 83.86 83.883 83.717 83.884 83.885 83.926 83.76 84.059 84.287 84.266 87.139 86.212 84.615 84.118 84.088 84.105 84.224 84.829 83.797 83.645 83.415 83.783 84.615 85.419 86.886 87.592 88.932 88.146 90.102 87.497 87.551 86.432 85.766 84.003 83.791 83.809 83.094 83.116 83.183 83.286 83.131 83.33 83.647 83.644 83.81 84.017 84.367 84.3 84.437 85.621 87.48 86.841 86.809 85.406 85.213 85.477 85.529 85.625 85.739 85.948 85.927 85.98 86.245 86.32 85.917 85.181 84.942 84.685 84.565 84.539 84.855 84.89 85.005 84.664 84.137 83.358 83.158 82.526 82.278 82.403 82.823 82.11 81.836 81.93 81.925 81.994 81.963 -9999 -9999 -9999 -9999 -9999 -9999 -9999 -9999 -9999 -9999 -9999 -9999 -9999 -9999 -9999 -9999 -9999 -9999 -9999 -9999 -9999 -9999 -9999 -9999 -9999 -9999 -9999 -9999 -9999 -9999 -9999 -9999 -9999 -9999 -9999 -9999 -9999 -9999 -9999 -9999 -9999 -9999 -9999
-9999 -9999 -9999 -9999 -9999 -9999 -9999 -9999 -9999 -9999 -9999 -9999 -9999 -9999 -9999 84.682 84.642 84.659 84.605 84.739 84.599 84.66 84.672 84.562 85.076 85.616 85.164 85.378 85.27 85.24 85.116 84.888 84.795 86.279 87.198 85.234 85.063 84.685 84.547 84.478 84.549 84.694 84.52 84.116 84.427 84.156 84.066 84.04 83.903 83.94 83.931 84.02 83.899 84.013 83.926 83.824 83.89 83.932 83.903 83.859 83.864 83.767 84.337 83.981 83.699 84.005 84.103 84.653 84.537 84.095 83.989 84.938 84.696 84.181 83.689 84.083 84.138 83.913 85.117 86.888 88.592 88.686 87.621 86.907 86.604 86.809 87.537 87.862 -9999 85.37 85.137 85.403 84.527 82.979 82.862 83.217 83.334 83.393 84.202 84.754 84.478 84.24 83.925 84.337 84.277 85.157 87.314 86.646 85.868 85.422 85.305 85.413 85.962 86.193 86.26 86.085 86.157 86.34 87.166 87.581 87.757 86.477 85.302 85.32 85.189 84.946 85.18 85.453 85.227 85.212 84.472 83.594 83.156 82.683 82.501 82.709 82.272 81.967 81.923 81.979 81.936 81.975 81.896 -9999 -9999 -9999 -9999 -9999 -9999 -9999 -9999 -9999 -9999 -9999 -9999 -9999 -9999 -9999 -9999 -9999 -9999 -9999 -9999 -9999 -9999 -9999 -9999 -9999 -9999 -9999 -9999 -9999 -9999 -9999 -9999 -9999 -9999 -9999 -9999 -9999 -9999 -9999 -9999 -9999 -9999 -9999
-9999 -9999 -9999 -9999 -9999 -9999 -9999 -9999 -9999 -9999 -9999 -9999 -9999 -9999 84.785 84.661 84.634 84.611 84.664 84.755 84.527 84.604 84.679 84.645 84.611 85.234 84.897 84.648 84.874 85.485 84.604 84.611 84.501 84.564 84.981 84.892 85.132 84.574 84.574 84.56 84.546 84.557 84.528 84.33 84.448 83.928 84.54 84.441 83.916 83.969 83.855 84 83.826 84.001 83.929 83.938 83.85 83.958 83.89 83.861 83.905 83.854 83.892 83.937 83.951 83.886 84.254 84.019 83.947 84.086 84.103 84.469 84.437 83.714 83.789 84.382 85.003 84.664 85.233 87.307 90.678 88.172 87.691 87.527 87.179 87.302 86.638 86.606 -9999 -9999 87.171 -9999 87.382 85.516 83.726 83.272 83.393 83.081 84.59 85.202 84.32 84.073 84.171 84.06 84.329 84.649 85.393 85.821 85.861 85.982 85.928 85.857 86.032 86.655 87.418 87.516 87.213 86.716 87.639 89.143 88.927 86.747 85.507 85.914 85.672 86.377 86.224 85.501 84.587 84.307 83.897 83.538 83.252 83.069 82.636 82.745 82.478 82.254 81.993 81.986 81.982 82.195 82.019 -9999 -9999 -9999 -9999 -9999 -9999 -9999 -9999 -9999 -9999 -9999 -9999 -9999 -9999 -9999 -9999 -9999 -9999 -9999 -9999 -9999 -9999 -9999 -9999 -9999 -9999 -9999 -9999 -9999 -9999 -9999 -9999 -9999 -9999 -9999 -9999 -9999 -9999 -9999 -9999 -9999 -9999 -9999
-9999 -9999 -9999 -9999 -9999 -9999 -9999 -9999 -9999 -9999 -9999 -9999 -9999 -9999 84.772 84.575 84.65 84.671 84.641 84.703 84.709 84.701 84.703 84.593 84.664 84.585 84.587 84.915 85.652 85.378 84.862 84.524 84.582 84.642 84.596 84.573 84.642 84.596 84.501 84.61 84.571 84.551 84.424 84.083 84.311 84.228 83.975 84.052 83.983 83.879 84.039 84.094 83.85 84.008 84.021 83.939 83.918 84.07 83.959 83.905 83.873 83.869 83.965 84.59 84.82 84.15 83.95 84.062 84.198 83.874 83.941 83.89 84.003 83.857 83.926 83.765 84.482 84.591 85.247 86.803 87.488 87.558 88.52 88.891 88.582 87.316 86.458 86.288 -9999 -9999 -9999 -9999 85.441 85.006 85.123 83.745 83.253 83.474 84.662 85.484 84.413 84.334 84.233 84.025 84.352 84.683 85.501 86.285 86.758 87.002 87.481 88.692 88.349 88.499 88.257 87.9 87.598 87.033 87.478 89.054 88.809 87.045 86.168 85.817 85.981 85.973 86.344 86.131 84.845 84.247 83.949 83.591 83.773 83.918 83.529 83.643 82.817 82.123 82.003 82.081 81.969 81.952 81.951 -9999 -9999 -9999 -9999 -9999 -9999 -9999 -9999 -9999 -9999 -9999 -9999 -9999 -9999 -9999 -9999 -9999 -9999 -9999 -9999 -9999 -9999 -9999 -9999 -9999 -9999 -9999 -9999 -9999 -9999 -9999 -9999 -9999 -9999 -9999 -9999 -9999 -9999 -9999 -9999 -9999 -9999 -9999
-9999 -9999 -9999 -9999 -9999 -9999 -9999 -9999 -9999 -9999 -9999 -9999 -9999 84.759 84.709 84.706 84.68 84.71 84.727 84.733 84.689 84.677 84.677 84.66 84.69 84.673 84.494 84.601 85.473 85.59 84.873 84.704 84.605 84.687 84.711 84.633 84.621 84.482 84.561 84.548 84.514 84.471 84.623 85.135 84.997 85.108 85.214 84.769 84.373 84.571 84.565 83.832 84.013 83.937 83.923 83.91 83.873 83.966 83.994 83.955 83.945 83.886 83.898 84.89 86.445 85.437 83.956 84.001 83.835 83.891 83.945 83.842 83.883 84.004 84.164 83.981 83.857 84.543 85.931 86.788 87.146 87.107 88.449 88.367 88.014 88.018 86.368 86.166 -9999 -9999 -9999 -9999 -9999 84.62 85.462 84.553 83.684 84.319 83.999 84.093 84.069 84.269 83.921 84.21 84.409 85.14 86.258 87.042 87.743 87.877 89.318 -9999 -9999 -9999 89.06 87.518 87.032 87.126 88.237 88.758 88.777 87.102 86.759 86.653 85.838 85.823 85.898 85.855 85.357 84.56 83.857 83.714 83.614 83.671 83.98 84.36 84.273 83.246 82.396 82.125 82.124 82.067 82.081 -9999 -9999 -9999 -9999 -9999 -9999 -9999 -9999 -9999 -9999 -9999 -9999 -9999 -9999 -9999 -9999 -9999 -9999 -9999 -9999 -9999 -9999 -9999 -9999 -9999 -9999 -9999 -9999 -9999 -9999 -9999 -9999 -9999 -9999 -9999 -9999 -9999 -9999 -9999 -9999 -9999 -9999 -9999
-9999 -9999 -9999 -9999 -9999 -9999 -9999 -9999 -9999 -9999 -9999 -9999 84.748 84.837 84.63 84.666 84.74 84.733 84.694 84.694 84.738 84.707 84.685 84.659 84.759 84.731 84.533 84.519 84.615 85.523 84.736 84.576 84.401 84.351 84.592 84.6 84.538 84.572 84.579 84.451 84.346 84.329 86.145 86.286 86.943 87.175 86.749 86.382 85.986 86.405 85.722 84.897 84.181 84.11 83.976 83.994 83.929 83.984 83.867 83.771 83.948 83.946 83.906 85.071 85.483 84.385 83.815 83.87 83.826 83.847 83.995 83.919 83.833 84.041 84.045 84.039 84.064 84.33 85.766 87.585 87.732 87.231 86.434 86.396 87.236 88.013 86.151 86.203 -9999 -9999 -9999 -9999 -9999 85.158 84.306 84.881 84.448 84.327 84.221 84.098 84.151 84.208 84.119 84.194 84.383 85.669 86.848 88.058 89.033 88.776 -9999 -9999 -9999 -9999 -9999 -9999 -9999 -9999 -9999 89.115 88.436 87.769 87.696 86.858 86.13 85.733 85.664 85.839 85.638 84.67 84.154 83.678 83.6 83.69 83.999 84.033 84.189 84.431 83.688 82.757 82.207 82.102 -9999 -9999 -9999 -9999 -9999 -9999 -9999 -9999 -9999 -9999 -9999 -9999 -9999 -9999 -9999 -9999 -9999 -9999 -9999 -9999 -9999 -9999 -9999 -9999 -9999 -9999 -9999 -9999 -9999 -9999 -9999 -9999 -9999 -9999 -9999 -9999 -9999 -9999 -9999 -9999 -9999 -9999 -9999 -9999
-9999 -9999 -9999 -9999 -9999 -9999 -9999 -9999 -9999 -9999 -9999 84.801 84.765 84.798 84.718 84.734 84.743 84.706 84.72 84.704 84.727 84.741 84.751 84.762 84.82 84.623 84.641 84.707 84.618 84.731 84.646 84.711 84.832 84.64 84.57 84.565 84.515 84.494 84.463 84.611 84.567 84.53 84.614 85.353 87.323 89.085 91.051 90.267 91.969 89.173 89.046 85.909 84.483 83.989 84.01 83.908 83.928 83.824 83.975 83.869 83.89 83.836 83.957 84.424 84.839 84.53 83.831 83.9 83.942 83.871 83.881 83.921 83.989 84.085 84.044 84.019 84.167 84.604 84.99 85.741 86.185 85.462 85.81 86.234 85.347 84.777 84.958 85.693 85.699 -9999 -9999 -9999 -9999 -9999 84.255 84.201 84.366 84.546 84.241 84.252 84.239 84.057 84.103 84.236 84.578 86.124 87.814 87.973 89.116 89.433 -9999 -9999 -9999 -9999 -9999 -9999 -9999 -9999 -9999 -9999 87.902 88.024 88.336 86.853 86.222 85.755 85.444 85.126 85.066 85.107 84.283 83.822 83.802 83.688 83.781 84.107 83.907 84.394 84.373 83.651 82.734 82.778 -9999 -9999 -9999 -9999 -9999 -9999 -9999 -9999 -9999 -9999 -9999 -9999 -9999 -9999 -9999 -9999 -9999 -9999 -9999 -9999 -9999 -9999 -9999 -9999 -9999 -9999 -9999 -9999 -9999 -9999 -9999 -9999 -9999 -9999 -9999 -9999 -9999 -9999 -9999 -9999 -9999 -9999 -9999 -9999
-9999 -9999 -9999 -9999 -9999 -9999 -9999 -9999 -9999 -9999 84.884 84.792 84.75 84.804 84.665 84.497 84.527 84.662 84.73 84.799 84.743 84.699 84.762 84.744 84.374 84.372 84.658 84.663 84.78 84.462 84.572 84.585 84.601 84.574 84.618 84.576 84.553 84.388 84.431 84.556 84.581 84.671 84.567 85.238 86.843 88.817 89.216 92.851 94.949 93.401 89.821 86.972 85.699 84.892 84.256 83.943 83.925 83.925 83.935 83.869 83.918 84.032 84.015 83.885 84.056 84.004 83.92 83.908 83.899 83.91 83.891 84.043 83.967 84.247 84.195 84.323 85.98 86.396 85.728 85.558 84.653 84.48 84.848 84.884 84.794 84.618 84.512 84.432 84.557 -9999 -9999 -9999 -9999 -9999 -9999 84.108 84.045 84.41 84.181 84.326 84.157 84.58 84.4 84.307 84.556 84.809 85.561 87.211 89.108 88.892 -9999 -9999 -9999 -9999 -9999 -9999 -9999 -9999 -9999 -9999 87.941 88.347 88.075 87.045 86.36 85.777 85.428 85.382 85.812 85.303 84.656 84.542 83.79 83.878 84.771 85.569 85.21 85.422 84.808 84.036 83.728 84.307 -9999 -9999 -9999 -9999 -9999 -9999 -9999 -9999 -9999 -9999 -9999 -9999 -9999 -9999 -9999 -9999 -9999 -9999 -9999 -9999 -9999 -9999 -9999 -9999 -9999 -9999 -9999 -9999 -9999 -9999 -9999 -9999 -9999 -9999 -9999 -9999 -9999 -9999 -9999 -9999 -9999 -9999 -9999 -9999
-9999 -9999 -9999 -9999 -9999 -9999 -9999 -9999 -9999 84.819 84.814 84.861 84.797 84.806 84.754 84.738 84.732 84.776 84.761 84.704 84.712 84.719 84.609 84.454 84.735 84.737 84.678 84.772 84.752 84.632 84.541 84.555 84.544 84.55 84.578 84.542 84.447 84.563 84.689 84.604 84.656 84.695 84.793 84.602 85.597 86.692 87.458 88.61 92.07 92.507 89.633 88.695 88.307 87.3 86.453 85.056 84.135 83.915 84.075 83.996 84.021 83.957 83.94 84.029 83.934 83.864 83.952 83.964 84.015 83.987 84.03 83.892 84.402 84.23 84.69 85.323 88.64 88.3 87.116 86.118 84.869 84.668 84.607 84.517 84.566 84.572 84.8 84.502 84.537 -9999 -9999 -9999 -9999 -9999 -9999 84.715 84.22 84.254 84.21 84.347 84.452 86.09 85.778 84.79 85.03 85.662 85.67 86.13 87.849 88.18 -9999 -9999 -9999 -9999 -9999 -9999 -9999 -9999 -9999 -9999 -9999 -9999 89.654 88.955 87.094 86.662 86.262 85.954 86.078 85.974 85.692 85.12 84.825 84.652 85.297 -9999 -9999 85.6 85.749 85.058 84.708 84.952 -9999 -9999 -9999 -9999 -9999 -9999 -9999 -9999 -9999 -9999 -9999 -9999 -9999 -9999 -9999 -9999 -9999 -9999 -9999 -9999 -9999 -9999 -9999 -9999 -9999 -9999 -9999 -9999 -9999 -9999 -9999 -9999 -9999 -9999 -9999 -9999 -9999 -9999 -9999 -9999 -9999 -9999 -9999 -9999
-9999 -9999 -9999 -9999 -9999 -9999 -9999 -9999 84.78 84.815 84.8 84.73 84.734 84.841 84.794 84.693 84.842 84.72 84.766 84.707 84.714 84.695 84.846 85.441 86.33 86.756 84.748 84.67 84.772 84.514 84.597 84.607 84.714 84.632 84.628 84.54 84.54 84.544 84.588 84.61 84.772 84.649 84.784 84.65 85.23 85.446 86.06 86.37 88.232 90.107 89.498 90.396 90.401 89.733 89.192 88.054 86.163 84.487 83.915 83.899 83.917 84.182 83.932 83.981 83.958 83.915 84.098 83.913 83.837 83.991 83.913 83.89 85.548 84.697 84.595 84.939 86.26 87.906 87.448 86.64 86.323 84.961 84.743 84.53 84.539 84.477 84.528 84.515 84.486 84.484 -9999 -9999 -9999 -9999 -9999 85.16 84.304 84.483 85.221 85.405 85.762 85.798 85.263 85.402 84.886 84.977 85.215 85.31 86.317 87.632 -9999 -9999 -9999 -9999 -9999 -9999 -9999 -9999 -9999 -9999 -9999 -9999 -9999 89.339 88.529 86.893 85.988 86.161 86.466 86.716 86.756 86.136 85.299 85.102 -9999 -9999 -9999 -9999 86.104 85.509 -9999 -9999 -9999 -9999 -9999 -9999 -9999 -9999 -9999 -9999 -9999 -9999 -9999 -9999 -9999 -9999 -9999 -9999 -9999 -9999 -9999 -9999 -9999 -9999 -9999 -9999 -9999 -9999 -9999 -9999 -9999 -9999 -9999 -9999 -9999 -9999 -9999 -9999 -9999 -9999 -9999 -9999 -9999 -9999 -9999 -9999
-9999 -9999 -9999 -9999 -9999 -9999 -9999 -9999 84.867 84.853 84.798 84.799 84.813 84.831 84.766 84.804 84.792 84.82 84.702 84.709 84.647 86.955 86.378 85.622 85.241 85.176 85.283 84.649 84.717 84.746 84.678 84.66 84.636 84.617 84.603 84.66 84.741 84.582 84.644 84.657 84.748 84.59 84.691 84.813 84.806 85.361 85.229 86.169 87.152 87.644 87.659 88.845 90.945 90.55 89.088 87.882 87.194 86.254 84.62 84.224 83.902 83.997 83.885 83.797 83.871 83.915 83.887 83.917 84.039 83.968 83.961 83.965 85.949 85.601 85.147 85.699 86.381 86.094 86.86 87.803 87.267 86.159 85.222 84.661 84.643 84.298 84.444 84.404 84.486 84.574 -9999 -9999 -9999 -9999 -9999 -9999 -9999 -9999 -9999 -9999 -9999 86.259 85.108 86.063 85.318 84.943 85.02 85.867 86.469 -9999 -9999 -9999 -9999 -9999 -9999 -9999 -9999 -9999 -9999 -9999 -9999 -9999 -9999 -9999 -9999 -9999 -9999 -9999 -9999 -9999 87.664 87.099 85.838 -9999 -9999 -9999 -9999 -9999 -9999 -9999 -9999 -9999 -9999 -9999 -9999 -9999 -9999 -9999 -9999 -9999 -9999 -9999 -9999 -9999 -9999 -9999 -9999 -9999 -9999 -9999 -9999 -9999 -9999 -9999 -9999 -9999 -9999 -9999 -9999 -9999 -9999 -9999 -9999 -9999 -9999 -9999 -9999 -9999 -9999 -9999 -9999 -9999 -9999 -9999 -9999 -9999
-9999 -9999 -9999 -9999 -9999 -9999 -9999 84.927 84.866 84.882 84.806 84.778 84.766 84.822 84.739 84.815 84.72 84.766 84.814 84.69 84.739 84.744 85.546 85.575 85.285 84.837 84.669 84.824 84.87 84.718 84.73 84.657 84.641 84.616 84.628 84.684 84.616 84.669 85.577 86.908 86.111 84.591 84.642 84.601 84.731 84.67 84.968 86 87.036 86.835 87.043 87.86 88.813 88.501 87.851 88.128 87.52 86.626 86.034 85.513 84.478 84.069 84.029 83.876 84.037 84.011 83.974 83.972 83.98 84.003 83.968 84.007 84.086 86.272 86.081 86.519 86.518 85.711 85.345 84.96 85.407 85.567 86.598 85.89 84.699 84.385 84.376 84.53 84.621 -9999 -9999 -9999 -9999 -9999 -9999 -9999 -9999 -9999 -9999 -9999 -9999 -9999 -9999 -9999 85.884 85.152 -9999 -9999 -9999 -9999 -9999 -9999 -9999 -9999 -9999 -9999 -9999 -9999 -9999 -9999 -9999 -9999 -9999 -9999 -9999 -9999 -9999 -9999 -9999 -9999 -9999 -9999 -9999 -9999 -9999 -9999 -9999 -9999 -9999 -9999 -9999 -9999 -9999 -9999 -9999 -9999 -9999 -9999 -9999 -9999 -9999 -9999 -9999 -9999 -9999 -9999 -9999 -9999 -9999 -9999 -9999 -9999 -9999 -9999 -9999 -9999 -9999 -9999 -9999 -9999 -9999 -9999 -9999 -9999 -9999 -9999 -9999 -9999 -9999 -9999 -9999 -9999 -9999 -9999 -9999 -9999
-9999 -9999 -9999 -9999 -9999 -9999 85.133 85.037 84.77 84.741 84.807 84.79 84.749 84.795 84.783 84.684 84.8 84.739 84.796 84.798 84.804 84.716 84.774 85.38 85.017 85.32 85.162 84.834 84.653 84.79 84.808 84.657 84.699 84.588 84.58 84.675 84.703 84.599 86.402 87.532 85.749 85.333 84.611 84.631 84.629 84.707 84.625 84.659 84.699 84.861 84.948 86.313 86.151 86.691 87.284 86.297 86.406 86.917 87.218 85.799 85.371 84.65 83.846 83.829 83.765 84.096 84.019 84.045 84.401 84.095 84.008 83.968 83.939 84.299 84.21 84.196 84.594 84.98 85.039 84.898 85.201 85.97 86.658 86.815 85.445 84.583 84.494 84.505 84.583 -9999 -9999 -9999 -9999 -9999 -9999 -9999 -9999 -9999 -9999 -9999 -9999 -9999 -9999 -9999 -9999 -9999 -9999 -9999 -9999 -9999 -9999 -9999 -9999 -9999 -9999 -9999 -9999 -9999 -9999 -9999 -9999 -9999 -9999 -9999 -9999 -9999 -9999 -9999 -9999 -9999 -9999 -9999 -9999 -9999 -9999 -9999 -9999 -9999 -9999 -9999 -9999 -9999 -9999 -9999 -9999 -9999 -9999 -9999 -9999 -9999 -9999 -9999 -9999 -9999 -9999 -9999 -9999 -9999 -9999 -9999 -9999 -9999 -9999 -9999 -9999 -9999 -9999 -9999 -9999 -9999 -9999 -9999 -9999 -9999 -9999 -9999 -9999 -9999 -9999 -9999 -9999 -9999 -9999 -9999 -9999 -9999
-9999 -9999 -9999 -9999 -9999 84.999 85.554 86.006 85.426 84.746 84.872 84.799 84.728 84.785 84.775 84.769 84.832 84.795 84.815 84.921 84.819 84.702 84.595 85.178 84.771 84.889 87.634 87.052 86.718 84.537 84.419 84.663 84.629 84.629 84.653 84.702 84.711 84.623 84.69 85.145 84.942 85.08 84.847 84.779 84.838 84.658 84.659 84.69 84.727 84.698 84.72 84.874 84.795 85.441 85.755 85.675 86.066 86.69 86.019 85.848 85.569 85.477 84.858 84.057 83.951 84.141 84.169 84.006 84.025 83.966 84.032 84.056 84.169 84.257 84.101 84.032 84.733 84.959 85.386 85.485 85.607 87.892 87.345 85.988 84.836 84.594 84.854 84.605 84.693 -9999 -9999 -9999 -9999 -9999 -9999 -9999 -9999 -9999 -9999 -9999 -9999 -9999 -9999 -9999 -9999 -9999 -9999 -9999 -9999 -9999 -9999 -9999 -9999 -9999 -9999 -9999 -9999 -9999 -9999 -9999 -9999 -9999 -9999 -9999 -9999 -9999 -9999 -9999 -9999 -9999 -9999 -9999 -9999 -9999 -9999 -9999 -9999 -9999 -9999 -9999 -9999 -9999 -9999 -9999 -9999 -9999 -9999 -9999 -9999 -9999 -9999 -9999 -9999 -9999 -9999 -9999 -9999 -9999 -9999 -9999 -9999 -9999 -9999 -9999 -9999 -9999 -9999 -9999 -9999 -9999 -9999 -9999 -9999 -9999 -9999 -9999 -9999 -9999 -9999 -9999 -9999 -9999 -9999 -9999 -9999 -9999
-9999 -9999 -9999 -9999 -9999 85.319 85.924 85.779 84.984 84.926 84.761 84.763 84.791 84.815 84.798 84.728 84.804 84.742 84.663 84.72 84.75 84.808 84.776 84.878 84.685 84.75 85.079 85.618 86.434 85.533 84.679 84.545 84.582 84.615 84.723 84.693 84.649 84.597 84.631 84.698 84.787 84.661 84.851 86.17 85.892 85.643 84.683 84.629 84.682 84.732 84.735 84.718 84.613 84.81 84.737 84.717 84.913 86.287 85.923 86.207 86.423 85.788 85.614 84.43 84.097 84.537 84.069 84.143 84.062 84 84.064 84.076 84.698 84.31 84.173 84.108 86.084 85.397 86.349 85.75 84.88 85.207 84.584 84.633 84.51 84.85 86.947 86.784 84.818 -9999 -9999 -9999 -9999 -9999 -9999 -9999 -9999 -9999 -9999 -9999 -9999 -9999 -9999 -9999 -9999 -9999 -9999 -9999 -9999 -9999 -9999 -9999 -9999 -9999 -9999 -9999 -9999 -9999 -9999 -9999 -9999 -9999 -9999 -9999 -9999 -9999 -9999 -9999 -9999 -9999 -9999 -9999 -9999 -9999 -9999 -9999 -9999 -9999 -9999 -9999 -9999 -9999 -9999 -9999 -9999 -9999 -9999 -9999 -9999 -9999 -9999 -9999 -9999 -9999 -9999 -9999 -9999 -9999 -9999 -9999 -9999 -9999 -9999 -9999 -9999 -9999 -9999 -9999 -9999 -9999 -9999 -9999 -9999 -9999 -9999 -9999 -9999 -9999 -9999 -9999 -9999 -9999 -9999 -9999 -9999 -9999
